-0.316536 0.252176 0.278115 0.600000 0.000000 0.300000
-0.124669 0.424318 0.138689 0.000000 0.500000 0.500000
-0.567290 0.345421 0.175786 0.600000 0.000000 0.300000
-0.159276 -0.791975 0.202631 0.600000 0.300000 0.000000
0.021813 -0.791975 -0.155787 0.600000 0.300000 0.000000
0.545261 -0.291912 -0.207522 0.300000 0.600000 0.000000
0.527877 0.423507 0.084993 0.300000 0.600000 0.000000
-0.019951 0.401140 -0.072522 0.000000 0.500000 0.500000
0.016165 -0.235122 -0.250637 0.300000 0.000000 0.600000
0.040238 -0.387282 0.045483 0.500000 0.500000 0.000000
0.519119 -0.364104 0.102064 0.500000 0.500000 0.000000
0.241249 -0.466162 0.260731 0.000000 0.000000 1.000000
-0.549906 -0.692974 0.239703 0.600000 0.000000 0.300000
-0.045369 0.071011 -0.189217 0.500000 0.000000 0.500000
-0.071181 -0.012832 0.278115 0.600000 0.000000 0.300000
0.307653 0.738512 0.217394 0.300000 0.000000 0.600000
0.076917 0.761690 -0.033316 0.300000 0.000000 0.600000
-0.271141 0.240698 0.260731 0.600000 0.000000 0.300000
-0.508783 0.761690 -0.052345 0.300000 0.000000 0.600000
-0.049278 -0.815153 0.171672 0.600000 0.300000 0.000000
0.432104 0.004674 0.260731 0.000000 0.000000 1.000000
-0.194859 -0.718335 -0.256431 0.300000 0.000000 0.600000
0.002495 -0.364104 -0.009366 0.500000 0.500000 0.000000
0.069317 0.471293 -0.250637 0.300000 0.000000 0.600000
-0.567290 -0.041276 -0.246328 0.600000 0.000000 0.300000
0.032536 -0.322333 0.278115 0.000000 0.000000 1.000000
-0.516280 -0.791975 -0.042195 0.600000 0.300000 0.000000
0.545261 -0.485422 -0.095892 0.300000 0.600000 0.000000
0.150825 0.424318 -0.194948 0.000000 0.500000 0.500000
0.527877 -0.701971 0.098736 0.300000 0.600000 0.000000
0.527877 -0.495023 -0.138880 0.300000 0.600000 0.000000
0.152072 0.401140 -0.029150 0.000000 0.500000 0.500000
-0.534004 0.761690 -0.258837 0.300000 0.000000 0.600000
-0.368676 -0.387282 -0.045643 0.500000 0.500000 0.000000
-0.314691 -0.438308 -0.250637 0.300000 0.000000 0.600000
0.028574 0.424318 0.106939 0.000000 0.500000 0.500000
0.118274 -0.815153 -0.158020 0.600000 0.300000 0.000000
0.527877 0.103268 -0.248776 0.300000 0.600000 0.000000
-0.567290 -0.113157 0.068975 0.600000 0.000000 0.300000
0.398608 0.071011 -0.217625 0.500000 0.000000 0.500000
0.086200 -0.815153 -0.030038 0.600000 0.300000 0.000000
0.545261 0.336831 -0.107404 0.300000 0.600000 0.000000
-0.549906 -0.651611 -0.186288 0.600000 0.000000 0.300000
0.137837 0.258213 0.260731 0.600000 0.300000 0.000000
0.503146 0.761690 -0.013437 0.300000 0.000000 0.600000
0.527877 0.489948 -0.168706 0.300000 0.600000 0.000000
-0.517058 0.206681 -0.256431 0.300000 0.000000 0.600000
0.302115 -0.605600 -0.250637 0.300000 0.000000 0.600000
0.052665 -0.414398 0.278115 0.000000 0.000000 1.000000
-0.549906 0.438797 -0.196255 0.600000 0.000000 0.300000
-0.266840 0.210019 0.278115 0.600000 0.000000 0.300000
-0.549906 0.296648 -0.135748 0.600000 0.000000 0.300000
-0.323802 -0.586120 0.260731 0.600000 0.000000 0.300000
-0.433771 -0.236977 0.260731 0.600000 0.000000 0.300000
-0.549906 -0.069865 0.127456 0.600000 0.000000 0.300000
0.310031 0.102111 -0.250637 0.300000 0.000000 0.600000
0.013818 0.761690 -0.104371 0.300000 0.000000 0.600000
0.320013 -0.387282 -0.194269 0.500000 0.500000 0.000000
-0.539273 0.071011 0.231906 0.500000 0.000000 0.500000
0.032267 0.735748 0.260731 0.600000 0.300000 0.000000
0.117608 0.738512 -0.156208 0.300000 0.000000 0.600000
0.240529 0.401140 -0.210783 0.000000 0.500000 0.500000
0.545261 -0.657090 0.006092 0.300000 0.600000 0.000000
0.311398 -0.364104 0.042861 0.500000 0.500000 0.000000
-0.398414 0.047833 0.142558 0.500000 0.000000 0.500000
0.527877 -0.100305 -0.048651 0.300000 0.600000 0.000000
-0.325188 0.424318 0.051444 0.000000 0.500000 0.500000
-0.390112 -0.791975 -0.264031 0.800000 0.200000 0.500000
-0.140348 0.761690 0.018041 0.300000 0.000000 0.600000
0.172494 0.761690 -0.133849 0.300000 0.000000 0.600000
0.271661 -0.364104 0.158479 0.500000 0.500000 0.000000
0.403912 0.467156 0.278115 0.600000 0.300000 0.000000
-0.522201 0.468225 -0.250637 0.300000 0.000000 0.600000
0.411306 0.281261 0.278115 0.600000 0.300000 0.000000
0.142330 0.122119 -0.250637 0.300000 0.000000 0.600000
0.295823 0.047833 -0.054863 0.500000 0.000000 0.500000
-0.511773 0.047833 0.179601 0.500000 0.000000 0.500000
-0.374554 0.071011 -0.007592 0.500000 0.000000 0.500000
-0.541506 0.639933 -0.273815 1.000000 0.000000 0.000000
-0.321287 0.401140 0.104515 0.000000 0.500000 0.500000
-0.152748 0.083668 0.278115 0.600000 0.000000 0.300000
0.035898 -0.387282 -0.205523 0.500000 0.500000 0.000000
-0.089089 0.070161 0.278115 0.600000 0.000000 0.300000
-0.123139 0.424318 0.078319 0.000000 0.500000 0.500000
0.471265 -0.384116 0.253488 0.500000 0.500000 0.000000
-0.129346 -0.785486 -0.273815 0.800000 0.200000 0.500000
-0.353368 0.424318 0.046856 0.000000 0.500000 0.500000
-0.459901 -0.387282 0.173213 0.500000 0.500000 0.000000
0.032215 -0.364104 -0.036112 0.500000 0.500000 0.000000
0.144655 -0.791975 0.026255 0.600000 0.300000 0.000000
0.259239 0.739839 0.260731 0.600000 0.300000 0.000000
-0.002372 0.738512 -0.007339 0.300000 0.000000 0.600000
0.430007 0.761690 0.008626 0.300000 0.000000 0.600000
-0.458797 0.761690 -0.161080 0.300000 0.000000 0.600000
-0.169961 -0.364104 -0.233305 0.500000 0.500000 0.000000
0.536524 0.761690 0.119405 0.300000 0.600000 0.000000
-0.549906 0.088873 0.125739 0.600000 0.000000 0.300000
0.287635 -0.364104 0.052090 0.500000 0.500000 0.000000
-0.118902 0.738512 0.258856 0.300000 0.000000 0.600000
-0.222909 0.401140 0.172622 0.000000 0.500000 0.500000
0.076938 0.738512 0.108405 0.300000 0.000000 0.600000
-0.183564 0.127619 0.278115 0.600000 0.000000 0.300000
-0.111413 0.030290 -0.273815 0.000000 0.000000 1.000000
0.255830 0.047833 0.067643 0.500000 0.000000 0.500000
0.472401 -0.084306 0.278115 0.000000 0.000000 1.000000
-0.055455 0.047833 -0.232358 0.500000 0.000000 0.500000
0.006362 -0.384997 -0.250637 0.500000 0.500000 0.000000
-0.549906 0.342056 -0.104109 0.600000 0.000000 0.300000
0.326171 0.071011 -0.030553 0.500000 0.000000 0.500000
-0.108721 0.738512 0.210565 0.300000 0.000000 0.600000
0.218796 0.761690 0.198629 0.300000 0.000000 0.600000
-0.079979 0.424318 -0.061900 0.000000 0.500000 0.500000
-0.476901 0.761690 -0.181544 0.300000 0.000000 0.600000
-0.297432 0.697451 0.278115 0.600000 0.000000 0.300000
-0.467369 0.424318 0.187915 0.000000 0.500000 0.500000
-0.567290 -0.319164 -0.042704 0.600000 0.000000 0.300000
0.101457 0.433062 -0.256431 0.300000 0.000000 0.600000
-0.283952 0.564520 0.260731 0.600000 0.000000 0.300000
0.269972 -0.387282 0.069003 0.500000 0.500000 0.000000
0.154602 -0.340179 0.260731 0.000000 0.000000 1.000000
0.425786 -0.387282 0.042236 0.500000 0.500000 0.000000
-0.558911 -0.265470 0.278115 0.600000 0.000000 0.300000
-0.567290 -0.784633 0.184789 0.600000 0.000000 0.300000
0.052726 -0.791975 0.148516 0.600000 0.300000 0.000000
0.191856 0.688120 0.260731 0.600000 0.300000 0.000000
-0.320227 0.385073 -0.256431 0.300000 0.000000 0.600000
-0.165684 0.761690 -0.257926 0.300000 0.000000 0.600000
-0.056565 -0.791975 -0.173794 0.600000 0.300000 0.000000
-0.315000 0.424318 -0.016009 0.000000 0.500000 0.500000
0.282369 0.401140 0.099217 0.000000 0.500000 0.500000
0.090182 -0.364104 -0.081329 0.500000 0.500000 0.000000
0.198991 0.460896 0.278115 0.600000 0.300000 0.000000
0.433714 0.189347 0.260731 0.600000 0.300000 0.000000
0.295497 0.240945 -0.250637 0.300000 0.000000 0.600000
-0.567290 -0.265097 0.170694 0.600000 0.000000 0.300000
-0.402982 0.738512 0.030461 0.300000 0.000000 0.600000
-0.549906 -0.106436 0.087120 0.600000 0.000000 0.300000
-0.285049 0.655614 0.278115 0.600000 0.000000 0.300000
-0.219412 0.117290 -0.250637 0.300000 0.000000 0.600000
0.270554 -0.109433 0.260731 0.000000 0.000000 1.000000
-0.463279 -0.364104 -0.194671 0.500000 0.500000 0.000000
-0.031893 0.761690 -0.153945 0.300000 0.000000 0.600000
0.079161 0.761690 0.256254 0.300000 0.000000 0.600000
0.212513 0.761690 0.096542 0.300000 0.000000 0.600000
-0.549906 -0.116067 0.002469 0.600000 0.000000 0.300000
0.314060 0.495255 -0.250637 0.300000 0.000000 0.600000
0.168920 0.738512 -0.014192 0.300000 0.000000 0.600000
0.426245 0.424318 -0.129979 0.000000 0.500000 0.500000
0.397074 -0.387282 0.020451 0.500000 0.500000 0.000000
-0.077293 -0.364104 -0.034149 0.500000 0.500000 0.000000
0.281745 -0.442756 0.278115 0.000000 0.000000 1.000000
0.071789 -0.271772 0.260731 0.000000 0.000000 1.000000
-0.567290 0.125015 0.208750 0.600000 0.000000 0.300000
-0.386024 0.493720 0.278115 0.600000 0.000000 0.300000
-0.406732 -0.035600 -0.250637 0.300000 0.000000 0.600000
-0.549906 -0.116819 0.194576 0.600000 0.000000 0.300000
-0.549906 0.540040 0.129944 0.600000 0.000000 0.300000
-0.163899 -0.317712 -0.256431 0.300000 0.000000 0.600000
0.232177 0.589534 0.260731 0.600000 0.300000 0.000000
0.423083 -0.021216 -0.273815 0.000000 0.000000 1.000000
0.258793 0.424318 0.067101 0.000000 0.500000 0.500000
0.222867 0.074764 0.260731 0.600000 0.300000 0.000000
0.082815 0.070008 0.278115 0.600000 0.300000 0.000000
-0.498639 0.659599 -0.273815 1.000000 0.000000 0.000000
-0.549906 0.638819 -0.031242 0.600000 0.000000 0.300000
0.200807 0.643977 0.260731 0.600000 0.300000 0.000000
-0.567290 0.381334 -0.041124 0.600000 0.000000 0.300000
0.476015 0.071011 0.206427 0.500000 0.000000 0.500000
-0.567290 0.310367 -0.248789 0.600000 0.000000 0.300000
0.155414 0.071011 0.106797 0.500000 0.000000 0.500000
-0.020139 0.738512 0.050737 0.300000 0.000000 0.600000
-0.093787 -0.791975 0.238365 0.600000 0.300000 0.000000
0.303872 0.761690 -0.047899 0.300000 0.000000 0.600000
0.397525 0.549120 0.278115 0.600000 0.300000 0.000000
-0.525536 0.606677 -0.256431 0.300000 0.000000 0.600000
0.391874 0.401140 -0.124797 0.000000 0.500000 0.500000
0.527877 -0.375568 0.248080 0.500000 0.500000 0.000000
0.470921 -0.791975 0.120371 0.600000 0.300000 0.000000
0.069588 -0.364104 0.063876 0.500000 0.500000 0.000000
-0.271648 0.047833 0.208787 0.500000 0.000000 0.500000
-0.235870 0.047833 0.103647 0.500000 0.000000 0.500000
0.466371 0.401140 0.066957 0.000000 0.500000 0.500000
0.297506 -0.216158 0.260731 0.000000 0.000000 1.000000
0.088767 -0.335807 0.260731 0.000000 0.000000 1.000000
0.527877 -0.738343 0.119479 0.300000 0.600000 0.000000
0.220591 -0.483646 0.278115 0.000000 0.000000 1.000000
0.527877 0.557600 -0.265044 0.300000 0.600000 0.000000
-0.549906 0.622386 -0.075587 0.600000 0.000000 0.300000
-0.128709 -0.269107 -0.250637 0.300000 0.000000 0.600000
-0.567290 0.532829 -0.241285 0.600000 0.000000 0.300000
0.363620 0.154767 -0.256431 0.300000 0.000000 0.600000
-0.134849 0.761690 -0.200479 0.300000 0.000000 0.600000
-0.549906 -0.611967 -0.230092 0.600000 0.000000 0.300000
0.107119 0.044325 0.260731 0.000000 0.000000 1.000000
-0.372889 -0.084677 -0.259985 0.000000 0.000000 1.000000
0.324439 0.401140 0.176478 0.000000 0.500000 0.500000
0.545261 -0.101041 0.256903 0.300000 0.600000 0.000000
-0.394445 0.598200 0.260731 0.600000 0.000000 0.300000
0.504869 -0.339362 -0.250637 0.300000 0.000000 0.600000
-0.522455 -0.364104 0.153232 0.500000 0.500000 0.000000
-0.223390 -0.022169 -0.250637 0.300000 0.000000 0.600000
-0.549906 0.707990 -0.054231 0.600000 0.000000 0.300000
0.527877 -0.705305 0.237017 0.300000 0.600000 0.000000
-0.549906 0.062638 0.156999 0.600000 0.000000 0.300000
0.282206 0.071011 -0.022085 0.500000 0.000000 0.500000
-0.050536 -0.666345 0.260731 0.600000 0.000000 0.300000
0.502640 -0.122593 -0.256431 0.300000 0.000000 0.600000
-0.115215 0.552485 0.260731 0.600000 0.000000 0.300000
-0.100293 0.412926 0.278115 0.600000 0.000000 0.300000
-0.506023 0.401140 -0.173979 0.000000 0.500000 0.500000
0.491984 0.401140 0.097587 0.000000 0.500000 0.500000
-0.399007 0.047833 0.001561 0.500000 0.000000 0.500000
0.527877 0.173493 0.151085 0.300000 0.600000 0.000000
0.236121 -0.815153 -0.107322 0.600000 0.300000 0.000000
-0.567290 -0.407789 -0.040998 0.600000 0.000000 0.300000
-0.124712 -0.797515 0.278115 0.600000 0.000000 0.300000
0.527877 0.020886 -0.121969 0.300000 0.600000 0.000000
0.418932 -0.281123 0.260731 0.000000 0.000000 1.000000
-0.184647 0.738512 0.056797 0.300000 0.000000 0.600000
0.205643 0.424318 0.253253 0.000000 0.500000 0.500000
-0.549906 0.075045 -0.135974 0.600000 0.000000 0.300000
-0.014094 -0.791975 0.201304 0.600000 0.300000 0.000000
-0.512619 -0.777602 -0.250637 0.300000 0.000000 0.600000
-0.567290 -0.342480 0.087827 0.600000 0.000000 0.300000
-0.436261 0.476021 -0.250637 0.300000 0.000000 0.600000
0.353834 0.192871 0.260731 0.600000 0.300000 0.000000
0.545261 -0.347697 0.147527 0.300000 0.600000 0.000000
-0.388554 0.071011 0.167523 0.500000 0.000000 0.500000
-0.193774 0.424318 0.156665 0.000000 0.500000 0.500000
-0.008630 -0.679492 -0.250637 0.300000 0.000000 0.600000
-0.219049 0.761690 -0.067463 0.300000 0.000000 0.600000
0.069453 0.737142 -0.256431 0.300000 0.000000 0.600000
0.443528 0.424318 0.063293 0.000000 0.500000 0.500000
0.545261 0.259101 0.095619 0.300000 0.600000 0.000000
0.527877 -0.719670 -0.230618 0.300000 0.600000 0.000000
-0.187952 0.047833 0.055344 0.500000 0.000000 0.500000
0.136398 0.401140 0.081989 0.000000 0.500000 0.500000
-0.293183 0.162776 0.278115 0.600000 0.000000 0.300000
0.119439 0.047833 -0.179993 0.500000 0.000000 0.500000
-0.567290 -0.570533 0.044115 0.600000 0.000000 0.300000
0.545261 0.155283 0.196009 0.300000 0.600000 0.000000
0.545261 0.599207 0.153317 0.300000 0.600000 0.000000
0.092580 0.071011 -0.238630 0.500000 0.000000 0.500000
0.518760 -0.093670 0.260731 0.000000 0.000000 1.000000
0.124706 0.553944 -0.250637 0.300000 0.000000 0.600000
-0.116138 -0.384975 -0.250637 0.500000 0.500000 0.000000
0.506832 0.684579 -0.273815 1.000000 0.000000 0.000000
0.545261 -0.256870 -0.125879 0.300000 0.600000 0.000000
0.170305 0.424318 -0.139338 0.000000 0.500000 0.500000
0.079524 0.047833 -0.017031 0.500000 0.000000 0.500000
-0.549906 -0.293498 0.067428 0.600000 0.000000 0.300000
0.050230 0.401140 0.240203 0.000000 0.500000 0.500000
0.517199 0.060871 0.261495 0.000000 0.000000 1.000000
0.527877 0.010195 0.225745 0.300000 0.600000 0.000000
0.135155 0.071011 0.087456 0.500000 0.000000 0.500000
0.387874 -0.364104 -0.022908 0.500000 0.500000 0.000000
-0.464855 -0.037781 -0.273815 0.000000 0.000000 1.000000
-0.280447 -0.364104 -0.207441 0.500000 0.500000 0.000000
0.439571 0.274091 -0.250637 0.300000 0.000000 0.600000
-0.567290 -0.221394 0.098074 0.600000 0.000000 0.300000
0.545261 0.041030 0.011148 0.300000 0.600000 0.000000
0.315226 0.703703 -0.256431 0.300000 0.000000 0.600000
0.140963 -0.791975 -0.256740 0.800000 0.200000 0.500000
0.527877 0.353568 0.242434 0.300000 0.600000 0.000000
-0.193122 0.761690 -0.231995 0.300000 0.000000 0.600000
0.128841 0.345812 0.278115 0.600000 0.300000 0.000000
0.190971 -0.387282 -0.209783 0.500000 0.500000 0.000000
0.011854 0.071011 0.176106 0.500000 0.000000 0.500000
-0.000844 0.424318 0.145750 0.000000 0.500000 0.500000
0.425133 0.672175 0.278115 0.600000 0.300000 0.000000
-0.325720 0.176056 -0.250637 0.300000 0.000000 0.600000
-0.016102 0.424318 -0.237068 0.000000 0.500000 0.500000
0.141136 -0.379793 0.278115 0.000000 0.000000 1.000000
0.339728 0.071011 0.165896 0.500000 0.000000 0.500000
-0.116854 0.738512 0.155264 0.300000 0.000000 0.600000
0.098207 0.759608 0.278115 0.600000 0.300000 0.000000
-0.549906 0.654402 0.016791 0.600000 0.000000 0.300000
0.044246 -0.670667 0.278115 0.000000 0.000000 1.000000
-0.189598 0.047833 0.118705 0.500000 0.000000 0.500000
-0.322447 0.660519 0.278115 0.600000 0.000000 0.300000
0.361741 -0.469957 -0.250637 0.300000 0.000000 0.600000
-0.412547 -0.387282 0.248809 0.500000 0.500000 0.000000
0.358023 0.380251 -0.256431 0.300000 0.000000 0.600000
-0.468560 0.229397 -0.256431 0.300000 0.000000 0.600000
-0.487980 0.304284 -0.256431 0.300000 0.000000 0.600000
0.410237 -0.121177 -0.250637 0.300000 0.000000 0.600000
-0.091455 0.047833 0.214225 0.500000 0.000000 0.500000
-0.361738 -0.387282 0.021669 0.500000 0.500000 0.000000
-0.396482 0.005491 -0.273815 0.000000 0.000000 1.000000
0.345023 0.738512 -0.081403 0.300000 0.000000 0.600000
-0.549906 -0.094843 0.034532 0.600000 0.000000 0.300000
0.073107 0.047833 0.135888 0.500000 0.000000 0.500000
0.410145 0.738512 -0.169436 0.300000 0.000000 0.600000
-0.065581 -0.399642 0.260731 0.600000 0.000000 0.300000
-0.276637 0.401140 -0.031680 0.000000 0.500000 0.500000
-0.549906 0.695828 -0.077223 0.600000 0.000000 0.300000
0.269915 -0.791975 0.155772 0.600000 0.300000 0.000000
-0.469683 -0.791975 -0.021126 0.600000 0.300000 0.000000
-0.357383 -0.387282 0.143242 0.500000 0.500000 0.000000
-0.527696 -0.791975 -0.142597 0.600000 0.300000 0.000000
0.210205 -0.022144 -0.250637 0.300000 0.000000 0.600000
-0.416027 0.071011 -0.094246 0.500000 0.000000 0.500000
0.136505 0.424318 -0.037671 0.000000 0.500000 0.500000
0.527877 -0.208788 -0.121352 0.300000 0.600000 0.000000
0.057811 0.738512 0.171076 0.300000 0.000000 0.600000
0.289176 0.761690 0.100104 0.300000 0.000000 0.600000
0.527877 0.400288 -0.256711 0.300000 0.600000 0.000000
0.527877 0.175647 -0.153599 0.300000 0.600000 0.000000
0.012968 -0.368614 0.278115 0.000000 0.000000 1.000000
0.047382 -0.387282 -0.091816 0.500000 0.500000 0.000000
-0.105905 -0.004695 0.260731 0.600000 0.000000 0.300000
0.068212 0.071011 0.022265 0.500000 0.000000 0.500000
0.158459 -0.364104 0.222400 0.500000 0.500000 0.000000
-0.437409 0.738512 -0.129446 0.300000 0.000000 0.600000
0.527877 -0.179105 -0.142407 0.300000 0.600000 0.000000
0.295576 0.435931 -0.256431 0.300000 0.000000 0.600000
0.379100 0.424318 0.069662 0.000000 0.500000 0.500000
-0.078369 0.028388 -0.273815 0.000000 0.000000 1.000000
0.545261 -0.537417 -0.234422 0.300000 0.600000 0.000000
-0.470354 0.401140 -0.184553 0.000000 0.500000 0.500000
0.041235 0.025698 0.278115 0.000000 0.000000 1.000000
0.378362 0.461526 -0.250637 0.300000 0.000000 0.600000
0.364766 0.761690 -0.048921 0.300000 0.000000 0.600000
0.042609 0.521845 0.260731 0.600000 0.300000 0.000000
-0.100584 -0.462693 0.260731 0.600000 0.000000 0.300000
-0.071308 0.738512 -0.216474 0.300000 0.000000 0.600000
0.024940 0.761690 0.159252 0.300000 0.000000 0.600000
-0.436506 -0.815153 -0.040265 0.600000 0.300000 0.000000
-0.289274 0.424318 0.137357 0.000000 0.500000 0.500000
-0.322365 0.401140 -0.157098 0.000000 0.500000 0.500000
0.390768 0.707913 -0.273815 1.000000 0.000000 0.000000
0.527877 -0.210685 -0.081821 0.300000 0.600000 0.000000
0.545261 -0.170109 -0.253700 0.300000 0.600000 0.000000
0.487899 -0.387282 -0.050969 0.500000 0.500000 0.000000
-0.549906 0.735999 0.148280 0.600000 0.000000 0.300000
-0.463463 0.047833 0.251123 0.500000 0.000000 0.500000
0.506971 0.401140 0.010211 0.000000 0.500000 0.500000
0.061940 -0.339363 0.260731 0.000000 0.000000 1.000000
0.109931 -0.776236 0.278115 0.000000 0.000000 1.000000
-0.432805 0.424318 -0.083916 0.000000 0.500000 0.500000
-0.348319 -0.815153 -0.269863 0.600000 0.300000 0.000000
0.545261 0.571829 0.041494 0.300000 0.600000 0.000000
-0.351727 -0.364104 -0.098872 0.500000 0.500000 0.000000
0.084588 -0.707880 -0.250637 0.300000 0.000000 0.600000
0.269000 0.047833 0.201254 0.500000 0.000000 0.500000
-0.335158 -0.728696 0.278115 0.600000 0.000000 0.300000
0.153337 -0.364104 -0.035527 0.500000 0.500000 0.000000
0.545261 -0.529374 -0.100665 0.300000 0.600000 0.000000
-0.288327 -0.282774 -0.250637 0.300000 0.000000 0.600000
-0.557080 -0.768317 0.259282 0.600000 0.000000 0.300000
-0.356391 -0.791975 0.122751 0.600000 0.300000 0.000000
-0.549906 -0.637677 0.186819 0.600000 0.000000 0.300000
0.527877 -0.435643 0.177797 0.300000 0.600000 0.000000
-0.104297 0.738512 -0.255687 0.300000 0.000000 0.600000
0.022877 0.738512 -0.047777 0.300000 0.000000 0.600000
-0.123649 -0.254976 0.278115 0.600000 0.000000 0.300000
0.545261 0.673479 0.033538 0.300000 0.600000 0.000000
0.151828 0.145978 0.260731 0.600000 0.300000 0.000000
-0.006249 -0.472779 -0.256431 0.300000 0.000000 0.600000
-0.176101 -0.391788 -0.250637 0.300000 0.000000 0.600000
0.545261 0.408059 0.017725 0.300000 0.600000 0.000000
-0.490982 -0.031269 0.260731 0.600000 0.000000 0.300000
-0.567290 0.495046 0.009393 0.600000 0.000000 0.300000
0.019876 -0.071789 -0.250637 0.300000 0.000000 0.600000
-0.049635 0.738512 -0.123787 0.300000 0.000000 0.600000
0.526067 0.480086 -0.256431 0.300000 0.000000 0.600000
0.545261 -0.349857 -0.071843 0.300000 0.600000 0.000000
0.527877 0.440030 0.111079 0.300000 0.600000 0.000000
-0.228673 0.738512 -0.181800 0.300000 0.000000 0.600000
-0.517472 0.071011 -0.132759 0.500000 0.000000 0.500000
-0.479356 0.401140 0.221669 0.000000 0.500000 0.500000
-0.098651 0.047833 -0.091826 0.500000 0.000000 0.500000
0.381428 0.401140 0.050206 0.000000 0.500000 0.500000
-0.297609 0.330550 0.260731 0.600000 0.000000 0.300000
0.497643 0.738512 0.177222 0.300000 0.000000 0.600000
0.458384 -0.042883 -0.256431 0.300000 0.000000 0.600000
-0.453811 -0.364104 0.026295 0.500000 0.500000 0.000000
0.444033 -0.155342 0.278115 0.000000 0.000000 1.000000
0.047844 0.424318 -0.086702 0.000000 0.500000 0.500000
-0.379267 0.738512 -0.272568 0.300000 0.000000 0.600000
0.379255 -0.364104 0.040372 0.500000 0.500000 0.000000
0.545261 -0.732974 0.161391 0.300000 0.600000 0.000000
-0.213894 -0.364104 0.240639 0.500000 0.500000 0.000000
0.251565 -0.815153 0.019109 0.600000 0.300000 0.000000
0.108328 0.047833 -0.208705 0.500000 0.000000 0.500000
-0.454447 -0.815153 0.237572 0.600000 0.300000 0.000000
0.176797 0.347081 -0.256431 0.300000 0.000000 0.600000
-0.567290 -0.030861 0.165602 0.600000 0.000000 0.300000
-0.139550 0.047833 -0.003061 0.500000 0.000000 0.500000
-0.220425 0.761690 -0.162869 0.300000 0.000000 0.600000
0.527877 -0.086169 0.163701 0.300000 0.600000 0.000000
0.056395 -0.137660 0.278115 0.000000 0.000000 1.000000
-0.398047 0.071011 0.121740 0.500000 0.000000 0.500000
-0.362766 0.401140 -0.220469 0.000000 0.500000 0.500000
-0.208776 -0.791975 0.100010 0.600000 0.300000 0.000000
-0.261819 0.071011 -0.057458 0.500000 0.000000 0.500000
-0.549906 0.454310 0.147651 0.600000 0.000000 0.300000
0.023250 0.647583 0.278115 0.600000 0.300000 0.000000
-0.132258 -0.223287 0.278115 0.600000 0.000000 0.300000
-0.471887 -0.726586 -0.256431 0.300000 0.000000 0.600000
0.545261 0.582931 -0.170998 0.300000 0.600000 0.000000
-0.399473 0.761690 0.121417 0.300000 0.000000 0.600000
0.527877 -0.124893 0.096540 0.300000 0.600000 0.000000
0.527877 -0.740554 0.186752 0.300000 0.600000 0.000000
0.339783 0.000653 -0.250637 0.300000 0.000000 0.600000
-0.385449 -0.557155 0.278115 0.600000 0.000000 0.300000
-0.134962 0.738512 0.054823 0.300000 0.000000 0.600000
0.527877 0.302022 -0.147983 0.300000 0.600000 0.000000
0.343585 -0.791975 0.137240 0.600000 0.300000 0.000000
-0.541691 0.388408 0.260731 0.600000 0.000000 0.300000
-0.194172 0.497431 0.260731 0.600000 0.000000 0.300000
-0.002077 0.761690 0.254268 0.300000 0.000000 0.600000
0.457485 -0.693566 -0.250637 0.300000 0.000000 0.600000
-0.549906 0.723158 -0.177642 0.600000 0.000000 0.300000
-0.345947 0.683183 -0.250637 0.300000 0.000000 0.600000
-0.129396 -0.169481 0.260731 0.600000 0.000000 0.300000
-0.302145 -0.613241 -0.256431 0.300000 0.000000 0.600000
-0.266845 0.041375 -0.250637 0.300000 0.000000 0.600000
-0.567290 0.376856 0.181458 0.600000 0.000000 0.300000
0.545261 0.096887 -0.092112 0.300000 0.600000 0.000000
-0.028447 -0.377263 0.278115 0.600000 0.000000 0.300000
0.545261 -0.767806 -0.060505 0.300000 0.600000 0.000000
0.545261 -0.253515 -0.047564 0.300000 0.600000 0.000000
0.147488 -0.815153 -0.208764 0.600000 0.300000 0.000000
0.508815 0.424318 0.129526 0.000000 0.500000 0.500000
-0.443292 -0.059255 -0.250637 0.300000 0.000000 0.600000
0.527877 -0.319123 -0.158522 0.300000 0.600000 0.000000
-0.024901 -0.791975 0.165881 0.600000 0.300000 0.000000
-0.096381 -0.114568 0.260731 0.600000 0.000000 0.300000
0.364485 -0.647599 -0.256431 0.300000 0.000000 0.600000
0.013440 -0.566536 -0.256431 0.300000 0.000000 0.600000
-0.181580 -0.041375 -0.250637 0.300000 0.000000 0.600000
-0.263948 0.424318 -0.201202 0.000000 0.500000 0.500000
-0.317196 0.047833 0.002771 0.500000 0.000000 0.500000
0.092785 0.071011 0.054516 0.500000 0.000000 0.500000
0.527877 0.672489 0.073194 0.300000 0.600000 0.000000
-0.360481 -0.694797 -0.273815 0.800000 0.200000 0.500000
-0.286568 0.047833 -0.020009 0.500000 0.000000 0.500000
0.363920 -0.490549 0.278115 0.000000 0.000000 1.000000
0.007966 0.047833 -0.109592 0.500000 0.000000 0.500000
0.129341 0.424318 0.164190 0.000000 0.500000 0.500000
0.115267 -0.656609 -0.250637 0.300000 0.000000 0.600000
0.054032 0.047833 0.190191 0.500000 0.000000 0.500000
-0.342129 0.047833 -0.238606 0.500000 0.000000 0.500000
0.115403 -0.791975 -0.034741 0.600000 0.300000 0.000000
-0.163637 0.190063 0.278115 0.600000 0.000000 0.300000
-0.277398 -0.781279 0.260731 0.600000 0.000000 0.300000
-0.431068 0.401140 0.107985 0.000000 0.500000 0.500000
0.212697 -0.364104 -0.149121 0.500000 0.500000 0.000000
-0.039558 0.071011 -0.065144 0.500000 0.000000 0.500000
-0.380264 0.456321 0.260731 0.600000 0.000000 0.300000
-0.258427 0.100787 0.260731 0.600000 0.000000 0.300000
-0.387010 -0.387282 0.252729 0.500000 0.500000 0.000000
0.123219 0.119227 0.278115 0.600000 0.300000 0.000000
-0.339000 -0.364104 -0.142440 0.500000 0.500000 0.000000
-0.141047 0.227405 0.278115 0.600000 0.000000 0.300000
0.335080 0.466811 0.260731 0.600000 0.300000 0.000000
-0.359755 -0.377772 0.278115 0.600000 0.000000 0.300000
-0.254918 0.761690 0.053415 0.300000 0.000000 0.600000
0.054899 -0.299206 0.260731 0.000000 0.000000 1.000000
-0.030834 0.410704 0.253488 0.000000 0.500000 0.500000
-0.549906 0.554973 -0.100185 0.600000 0.000000 0.300000
-0.331469 -0.771236 0.278115 0.600000 0.000000 0.300000
-0.549906 0.619081 0.040218 0.600000 0.000000 0.300000
-0.549906 -0.794786 0.073971 0.600000 0.300000 0.000000
0.471752 -0.364104 0.086715 0.500000 0.500000 0.000000
0.197405 0.424318 0.078097 0.000000 0.500000 0.500000
-0.053907 0.071011 0.176146 0.500000 0.000000 0.500000
0.527877 -0.576100 -0.180399 0.300000 0.600000 0.000000
-0.567290 -0.622866 -0.138564 0.600000 0.000000 0.300000
-0.190729 0.124464 -0.250637 0.300000 0.000000 0.600000
-0.490861 -0.815153 0.165283 0.600000 0.300000 0.000000
0.171895 0.424318 -0.241446 0.000000 0.500000 0.500000
0.527877 0.196969 -0.266759 0.300000 0.600000 0.000000
0.422979 -0.606775 0.260731 0.000000 0.000000 1.000000
0.411111 -0.364104 -0.187495 0.500000 0.500000 0.000000
0.335074 0.761690 -0.152955 0.300000 0.000000 0.600000
-0.549906 -0.138122 0.113167 0.600000 0.000000 0.300000
-0.396025 0.738512 -0.232822 0.300000 0.000000 0.600000
0.036820 0.071011 0.070383 0.500000 0.000000 0.500000
0.517009 0.621696 0.260731 0.600000 0.300000 0.000000
-0.185708 -0.761814 -0.273815 0.800000 0.200000 0.500000
0.330905 0.047833 0.093987 0.500000 0.000000 0.500000
-0.358541 0.252483 0.278115 0.600000 0.000000 0.300000
0.390097 -0.791975 0.165264 0.600000 0.300000 0.000000
0.447500 -0.364104 0.075333 0.500000 0.500000 0.000000
-0.008981 0.204868 -0.256431 0.300000 0.000000 0.600000
0.307347 0.291486 -0.250637 0.300000 0.000000 0.600000
-0.567290 0.158161 0.139108 0.600000 0.000000 0.300000
0.217451 -0.791975 0.254331 0.600000 0.300000 0.000000
0.419801 0.047833 0.010993 0.500000 0.000000 0.500000
-0.461433 -0.815153 0.011050 0.600000 0.300000 0.000000
-0.124292 -0.791975 -0.074953 0.600000 0.300000 0.000000
-0.549906 -0.315782 0.003070 0.600000 0.000000 0.300000
0.145137 0.761690 -0.168167 0.300000 0.000000 0.600000
-0.465331 -0.387282 -0.106480 0.500000 0.500000 0.000000
-0.005141 -0.790792 -0.250637 0.300000 0.000000 0.600000
-0.567290 -0.082563 0.087438 0.600000 0.000000 0.300000
-0.388930 -0.502048 0.278115 0.600000 0.000000 0.300000
-0.495128 0.634666 -0.250637 0.300000 0.000000 0.600000
-0.241907 -0.084304 -0.256431 0.000000 0.000000 1.000000
-0.273661 -0.404125 -0.250637 0.300000 0.000000 0.600000
-0.427783 0.026623 -0.256431 0.300000 0.000000 0.600000
-0.549906 0.761314 0.030638 0.600000 0.000000 0.300000
0.324616 0.071011 0.233900 0.500000 0.000000 0.500000
-0.567290 0.252484 0.015822 0.600000 0.000000 0.300000
-0.193759 -0.364104 -0.220676 0.500000 0.500000 0.000000
0.076785 0.083667 -0.256431 0.300000 0.000000 0.600000
0.545261 -0.195804 0.169351 0.300000 0.600000 0.000000
-0.192129 -0.457559 -0.250637 0.300000 0.000000 0.600000
-0.385203 -0.387282 0.095305 0.500000 0.500000 0.000000
0.177533 -0.815153 0.229137 0.600000 0.300000 0.000000
0.163847 0.071011 -0.055176 0.500000 0.000000 0.500000
-0.181532 0.706013 0.278115 0.600000 0.000000 0.300000
0.532047 0.596734 -0.273815 0.300000 0.600000 0.000000
-0.567290 0.745101 -0.178240 0.600000 0.000000 0.300000
-0.110498 -0.513530 0.260731 0.600000 0.000000 0.300000
0.049295 0.237885 0.278115 0.600000 0.300000 0.000000
0.545261 0.195123 -0.059855 0.300000 0.600000 0.000000
0.527877 0.436590 -0.162068 0.300000 0.600000 0.000000
0.249423 -0.364104 -0.086056 0.500000 0.500000 0.000000
0.352111 0.401140 0.175000 0.000000 0.500000 0.500000
-0.228617 0.401140 -0.152228 0.000000 0.500000 0.500000
-0.534660 -0.387282 -0.083253 0.500000 0.500000 0.000000
-0.549906 0.016634 0.233850 0.600000 0.000000 0.300000
0.396930 -0.067481 0.278115 0.000000 0.000000 1.000000
-0.515105 0.738512 0.030431 0.300000 0.000000 0.600000
-0.101502 0.126876 0.260731 0.600000 0.000000 0.300000
-0.126173 0.738512 -0.055252 0.300000 0.000000 0.600000
0.542447 -0.101024 -0.273815 0.300000 0.600000 0.000000
-0.290432 -0.815153 0.130349 0.600000 0.300000 0.000000
-0.452614 0.761690 -0.246367 0.300000 0.000000 0.600000
-0.529904 0.424318 0.078011 0.000000 0.500000 0.500000
-0.339882 0.047833 -0.014615 0.500000 0.000000 0.500000
0.313273 0.424318 0.015255 0.000000 0.500000 0.500000
-0.567290 -0.737986 0.240907 0.600000 0.000000 0.300000
0.374169 0.159060 0.260731 0.600000 0.300000 0.000000
-0.093440 0.071011 -0.006317 0.500000 0.000000 0.500000
0.121479 -0.815153 -0.003214 0.600000 0.300000 0.000000
-0.514116 0.228086 0.278115 0.600000 0.000000 0.300000
0.450757 -0.371856 0.278115 0.000000 0.000000 1.000000
0.163757 0.579580 -0.250637 0.300000 0.000000 0.600000
0.264718 0.424318 -0.199575 0.000000 0.500000 0.500000
0.255153 -0.100683 0.278115 0.000000 0.000000 1.000000
-0.073062 -0.791975 0.124761 0.600000 0.300000 0.000000
-0.260370 -0.791975 -0.247738 0.600000 0.300000 0.000000
0.527877 0.007075 0.009450 0.300000 0.600000 0.000000
0.219966 -0.006102 0.278115 0.000000 0.000000 1.000000
0.161558 -0.171213 0.278115 0.000000 0.000000 1.000000
0.289033 0.076685 -0.250637 0.300000 0.000000 0.600000
-0.565841 -0.456609 0.269425 0.600000 0.000000 0.300000
-0.390800 -0.815153 -0.251908 0.600000 0.300000 0.000000
-0.033372 -0.815153 0.210926 0.600000 0.300000 0.000000
-0.395760 0.738512 -0.046870 0.300000 0.000000 0.600000
0.230217 0.543134 0.260731 0.600000 0.300000 0.000000
-0.097298 0.498097 0.278115 0.600000 0.000000 0.300000
-0.567290 0.129391 0.083494 0.600000 0.000000 0.300000
-0.370947 0.071011 -0.208751 0.500000 0.000000 0.500000
-0.549906 0.011493 -0.067944 0.600000 0.000000 0.300000
0.201489 -0.815153 0.086983 0.600000 0.300000 0.000000
-0.549906 -0.537003 0.034254 0.600000 0.000000 0.300000
-0.000642 0.761690 0.161644 0.300000 0.000000 0.600000
-0.322044 -0.815153 0.036993 0.600000 0.300000 0.000000
0.527877 -0.361697 -0.010762 0.300000 0.600000 0.000000
-0.501640 -0.379047 0.260731 0.600000 0.000000 0.300000
-0.232203 0.424318 -0.057593 0.000000 0.500000 0.500000
0.500081 0.047833 -0.007521 0.500000 0.000000 0.500000
0.302547 0.031773 -0.250637 0.300000 0.000000 0.600000
0.354524 -0.278359 -0.256431 0.300000 0.000000 0.600000
-0.509214 0.047833 0.220830 0.500000 0.000000 0.500000
-0.376660 -0.387282 0.182357 0.500000 0.500000 0.000000
-0.041042 0.401140 0.175177 0.000000 0.500000 0.500000
-0.358602 0.401140 -0.075061 0.000000 0.500000 0.500000
-0.458914 -0.791975 -0.228302 0.600000 0.300000 0.000000
-0.396230 0.047833 0.090988 0.500000 0.000000 0.500000
0.116549 -0.736553 -0.256431 0.800000 0.200000 0.500000
0.254714 -0.002551 -0.250637 0.300000 0.000000 0.600000
0.527877 0.109635 -0.186558 0.300000 0.600000 0.000000
-0.567290 0.087300 0.005303 0.600000 0.000000 0.300000
-0.279526 -0.135310 0.260731 0.600000 0.000000 0.300000
0.490949 -0.612217 0.260731 0.000000 0.000000 1.000000
-0.565841 -0.116823 0.277594 0.600000 0.000000 0.300000
0.379622 -0.815153 0.220534 0.600000 0.300000 0.000000
0.137882 0.047833 0.130057 0.500000 0.000000 0.500000
-0.379398 -0.018596 -0.250637 0.300000 0.000000 0.600000
-0.549906 0.716456 0.257590 0.600000 0.000000 0.300000
-0.078144 -0.676675 -0.273815 0.800000 0.200000 0.500000
-0.330028 -0.048256 0.278115 0.600000 0.000000 0.300000
0.059469 0.700106 -0.273815 1.000000 0.000000 0.000000
0.545261 0.603145 -0.029764 0.300000 0.600000 0.000000
-0.524683 0.401140 -0.101180 0.000000 0.500000 0.500000
0.275973 -0.597763 -0.256431 0.300000 0.000000 0.600000
-0.184781 -0.269838 0.278115 0.600000 0.000000 0.300000
-0.567290 0.247555 -0.018639 0.600000 0.000000 0.300000
0.069689 0.095839 0.278115 0.600000 0.300000 0.000000
0.196105 0.613381 0.260731 0.600000 0.300000 0.000000
0.049449 -0.364104 0.047817 0.500000 0.500000 0.000000
-0.223239 -0.387282 0.083856 0.500000 0.500000 0.000000
0.527877 0.018756 0.100108 0.300000 0.600000 0.000000
-0.267465 0.634009 0.278115 0.600000 0.000000 0.300000
0.004094 -0.750079 0.260731 0.000000 0.000000 1.000000
0.364544 0.733536 0.278115 0.600000 0.300000 0.000000
-0.380008 -0.790930 0.278115 0.600000 0.000000 0.300000
-0.121534 0.071011 -0.225716 0.500000 0.000000 0.500000
-0.056934 0.454680 0.260731 0.600000 0.000000 0.300000
-0.549906 0.307846 0.005878 0.600000 0.000000 0.300000
-0.549906 0.094744 0.047772 0.600000 0.000000 0.300000
0.076500 0.260720 -0.256431 0.300000 0.000000 0.600000
0.137830 0.620313 0.278115 0.600000 0.300000 0.000000
0.090864 -0.387282 -0.197470 0.500000 0.500000 0.000000
0.450822 -0.387282 0.054722 0.500000 0.500000 0.000000
-0.028481 0.424318 -0.117712 0.000000 0.500000 0.500000
-0.549906 -0.065762 0.073980 0.600000 0.000000 0.300000
0.409148 0.761690 0.122530 0.300000 0.000000 0.600000
0.490250 0.693290 0.278115 0.600000 0.300000 0.000000
0.147882 0.007770 0.260731 0.000000 0.000000 1.000000
0.545261 -0.589069 0.079297 0.300000 0.600000 0.000000
-0.567290 0.415617 -0.265922 0.600000 0.000000 0.300000
0.453354 -0.815153 -0.254310 0.600000 0.300000 0.000000
0.106965 0.521764 0.260731 0.600000 0.300000 0.000000
0.360132 0.266211 0.278115 0.600000 0.300000 0.000000
-0.446942 0.761690 0.250992 0.300000 0.000000 0.600000
-0.001810 -0.815153 -0.164796 0.600000 0.300000 0.000000
-0.497096 0.761690 0.091634 0.300000 0.000000 0.600000
0.520722 -0.815153 -0.245046 0.600000 0.300000 0.000000
0.240118 -0.166595 -0.256431 0.300000 0.000000 0.600000
-0.439371 0.761690 -0.040478 0.300000 0.000000 0.600000
-0.083807 0.424318 -0.172258 0.000000 0.500000 0.500000
-0.368324 -0.711194 0.260731 0.600000 0.000000 0.300000
-0.120479 -0.041121 -0.273815 0.000000 0.000000 1.000000
0.246336 0.401140 0.079447 0.000000 0.500000 0.500000
0.245894 -0.401607 0.278115 0.000000 0.000000 1.000000
-0.549906 -0.677455 -0.029326 0.600000 0.000000 0.300000
0.527877 0.614449 -0.229653 0.300000 0.600000 0.000000
0.175446 -0.791975 0.204838 0.600000 0.300000 0.000000
0.329162 0.071011 -0.101410 0.500000 0.000000 0.500000
-0.429508 -0.442848 0.278115 0.600000 0.000000 0.300000
-0.274136 0.761690 -0.271227 0.300000 0.000000 0.600000
-0.039011 -0.471456 0.260731 0.600000 0.000000 0.300000
0.270438 -0.469692 0.278115 0.000000 0.000000 1.000000
-0.549906 0.341792 -0.194792 0.600000 0.000000 0.300000
0.039750 0.392287 0.260731 0.600000 0.300000 0.000000
0.217938 -0.200035 0.278115 0.000000 0.000000 1.000000
0.077090 0.535530 0.260731 0.600000 0.300000 0.000000
-0.288497 0.047833 -0.156383 0.500000 0.000000 0.500000
0.099936 -0.572074 0.278115 0.000000 0.000000 1.000000
0.156855 0.401140 -0.200932 0.000000 0.500000 0.500000
-0.300067 -0.791975 -0.267692 0.800000 0.200000 0.500000
0.545261 0.036211 0.218480 0.300000 0.600000 0.000000
-0.110533 -0.748172 -0.256431 0.800000 0.200000 0.500000
-0.323405 0.742171 0.260731 0.600000 0.000000 0.300000
-0.318116 0.401140 0.017821 0.000000 0.500000 0.500000
-0.408632 0.424318 -0.144817 0.000000 0.500000 0.500000
-0.476642 -0.222547 0.278115 0.600000 0.000000 0.300000
0.527877 0.331302 0.028031 0.300000 0.600000 0.000000
0.001041 0.401140 -0.228918 0.000000 0.500000 0.500000
0.326895 0.047833 0.216999 0.500000 0.000000 0.500000
0.478608 -0.364104 -0.127357 0.500000 0.500000 0.000000
-0.486588 0.358316 0.260731 0.600000 0.000000 0.300000
0.347347 0.501105 0.278115 0.600000 0.300000 0.000000
-0.549906 -0.376696 0.099347 0.500000 0.500000 0.000000
0.341763 -0.752647 -0.256431 0.300000 0.000000 0.600000
0.191721 -0.387282 -0.097907 0.500000 0.500000 0.000000
0.386334 0.180415 0.278115 0.600000 0.300000 0.000000
-0.106114 -0.791975 -0.047706 0.600000 0.300000 0.000000
-0.246605 -0.061603 0.260731 0.600000 0.000000 0.300000
-0.290485 0.520188 0.278115 0.600000 0.000000 0.300000
-0.203535 0.738512 -0.234432 0.300000 0.000000 0.600000
0.527877 0.569210 -0.153307 0.300000 0.600000 0.000000
0.545261 0.430772 -0.038873 0.300000 0.600000 0.000000
0.464831 0.207800 0.278115 0.600000 0.300000 0.000000
-0.549906 -0.634444 0.115106 0.600000 0.000000 0.300000
0.010097 -0.815153 -0.128152 0.600000 0.300000 0.000000
0.527877 0.206346 0.101067 0.300000 0.600000 0.000000
-0.462267 0.522821 -0.256431 0.300000 0.000000 0.600000
-0.404794 0.161010 0.260731 0.600000 0.000000 0.300000
-0.567290 -0.633130 0.039464 0.600000 0.000000 0.300000
0.527877 -0.398390 -0.186462 0.300000 0.600000 0.000000
-0.166497 -0.355287 0.278115 0.600000 0.000000 0.300000
-0.227687 -0.364104 -0.196246 0.500000 0.500000 0.000000
-0.248321 -0.595712 0.278115 0.600000 0.000000 0.300000
0.054847 0.185845 0.260731 0.600000 0.300000 0.000000
0.011153 0.401140 -0.064198 0.000000 0.500000 0.500000
-0.549906 -0.232190 -0.262540 0.600000 0.000000 0.300000
0.036397 0.738512 -0.014008 0.300000 0.000000 0.600000
-0.074899 -0.815153 0.114661 0.600000 0.300000 0.000000
0.527877 -0.216631 0.224702 0.300000 0.600000 0.000000
-0.084511 -0.791975 -0.085341 0.600000 0.300000 0.000000
0.419161 -0.815153 0.215950 0.600000 0.300000 0.000000
-0.483248 -0.387282 -0.124195 0.500000 0.500000 0.000000
0.113214 0.358522 -0.250637 0.300000 0.000000 0.600000
0.527877 0.564865 -0.007348 0.300000 0.600000 0.000000
-0.457541 -0.160824 0.278115 0.600000 0.000000 0.300000
0.466835 0.121819 0.260731 0.600000 0.300000 0.000000
0.118548 0.401140 -0.007770 0.000000 0.500000 0.500000
0.206596 -0.815153 -0.225313 0.600000 0.300000 0.000000
-0.171867 0.759236 0.259282 0.300000 0.000000 0.600000
0.545261 -0.145116 0.049014 0.300000 0.600000 0.000000
0.217846 0.047833 0.039527 0.500000 0.000000 0.500000
-0.138613 -0.600340 0.260731 0.600000 0.000000 0.300000
0.523212 0.448200 -0.256431 0.300000 0.000000 0.600000
0.288555 -0.721735 0.278115 0.000000 0.000000 1.000000
0.017775 -0.636282 -0.250637 0.300000 0.000000 0.600000
0.389077 -0.010225 -0.250637 0.300000 0.000000 0.600000
-0.567290 -0.383530 -0.079667 0.600000 0.000000 0.300000
0.103562 0.738512 0.122053 0.300000 0.000000 0.600000
0.024250 0.750942 -0.273815 0.300000 0.000000 0.600000
0.390391 -0.791975 -0.021904 0.600000 0.300000 0.000000
0.388037 0.738512 0.169174 0.300000 0.000000 0.600000
-0.045409 0.738512 -0.166037 0.300000 0.000000 0.600000
0.527877 -0.152434 0.246725 0.300000 0.600000 0.000000
-0.524652 -0.383324 0.278115 0.600000 0.000000 0.300000
0.545261 -0.694770 0.119953 0.300000 0.600000 0.000000
-0.357897 0.047833 -0.084271 0.500000 0.000000 0.500000
-0.567290 -0.714424 0.186575 0.600000 0.000000 0.300000
-0.516289 0.761690 0.131120 0.300000 0.000000 0.600000
0.280737 0.071011 -0.178093 0.500000 0.000000 0.500000
-0.305924 0.761690 -0.008689 0.300000 0.000000 0.600000
-0.430098 0.738512 -0.270377 0.300000 0.000000 0.600000
-0.362749 0.638521 0.260731 0.600000 0.000000 0.300000
0.527877 -0.037835 0.120844 0.300000 0.600000 0.000000
-0.567290 0.247305 0.240075 0.600000 0.000000 0.300000
0.129006 0.047833 -0.240007 0.500000 0.000000 0.500000
0.125804 0.071011 0.058356 0.500000 0.000000 0.500000
-0.471470 0.203523 -0.250637 0.300000 0.000000 0.600000
-0.055014 0.720890 0.260731 0.600000 0.000000 0.300000
0.090364 0.143975 0.260731 0.600000 0.300000 0.000000
-0.085970 0.071011 0.119246 0.500000 0.000000 0.500000
0.465204 0.244532 -0.256431 0.300000 0.000000 0.600000
-0.068154 -0.791975 -0.043046 0.600000 0.300000 0.000000
-0.342246 -0.403081 0.278115 0.600000 0.000000 0.300000
-0.100738 0.401140 -0.171989 0.000000 0.500000 0.500000
0.545261 -0.731996 0.249833 0.300000 0.600000 0.000000
-0.312728 0.418173 0.278115 0.600000 0.000000 0.300000
0.386214 0.729380 -0.250637 0.300000 0.000000 0.600000
0.447756 0.047833 -0.132195 0.500000 0.000000 0.500000
-0.436951 0.559184 0.278115 0.600000 0.000000 0.300000
0.448813 -0.534645 -0.250637 0.300000 0.000000 0.600000
-0.091017 -0.392567 -0.256431 0.300000 0.000000 0.600000
0.158220 0.761690 0.022177 0.300000 0.000000 0.600000
0.157933 0.071011 -0.237853 0.500000 0.000000 0.500000
-0.068870 0.071011 -0.127410 0.500000 0.000000 0.500000
0.228413 0.424318 -0.151758 0.000000 0.500000 0.500000
0.510664 0.401140 0.152450 0.000000 0.500000 0.500000
0.179197 -0.791975 -0.272946 0.600000 0.300000 0.000000
0.150183 0.662107 -0.256431 1.000000 0.000000 0.000000
0.219827 0.424318 -0.202729 0.000000 0.500000 0.500000
0.545261 0.540467 0.151489 0.300000 0.600000 0.000000
-0.093083 0.580439 -0.256431 0.300000 0.000000 0.600000
-0.567290 -0.288552 0.194502 0.600000 0.000000 0.300000
-0.088735 -0.364104 -0.004499 0.500000 0.500000 0.000000
0.102005 0.658334 0.260731 0.600000 0.300000 0.000000
0.471043 -0.026835 0.260731 0.000000 0.000000 1.000000
-0.192061 -0.184363 -0.250637 0.300000 0.000000 0.600000
-0.124313 0.424318 -0.218632 0.000000 0.500000 0.500000
0.035473 -0.387282 0.018667 0.500000 0.500000 0.000000
-0.190513 0.761690 -0.107483 0.300000 0.000000 0.600000
0.527877 -0.472663 -0.083411 0.300000 0.600000 0.000000
0.062415 0.622621 -0.271728 1.000000 0.000000 0.000000
-0.437706 -0.364104 0.132978 0.500000 0.500000 0.000000
-0.282397 -0.241586 0.260731 0.600000 0.000000 0.300000
0.283820 0.401140 -0.070438 0.000000 0.500000 0.500000
0.479353 -0.731472 -0.250637 0.300000 0.000000 0.600000
0.285400 -0.738735 -0.250637 0.300000 0.000000 0.600000
0.545261 -0.058433 0.134382 0.300000 0.600000 0.000000
-0.177529 -0.019255 0.278115 0.600000 0.000000 0.300000
0.236008 0.738512 0.231215 0.300000 0.000000 0.600000
0.481020 0.019322 0.260731 0.000000 0.000000 1.000000
-0.303259 -0.791975 0.135364 0.600000 0.300000 0.000000
-0.163702 -0.364104 -0.122641 0.500000 0.500000 0.000000
-0.231592 -0.364104 0.205682 0.500000 0.500000 0.000000
-0.567290 0.435388 -0.069364 0.600000 0.000000 0.300000
0.527877 -0.489202 0.226307 0.300000 0.600000 0.000000
0.439340 -0.387282 0.086818 0.500000 0.500000 0.000000
0.472884 0.464023 0.278115 0.600000 0.300000 0.000000
-0.478813 -0.353628 -0.256431 0.300000 0.000000 0.600000
-0.230463 -0.815153 -0.223694 0.600000 0.300000 0.000000
-0.062391 -0.387282 -0.131685 0.500000 0.500000 0.000000
0.180473 -0.795564 0.278115 0.000000 0.000000 1.000000
-0.423714 -0.153005 0.278115 0.600000 0.000000 0.300000
0.499691 0.738512 0.037178 0.300000 0.000000 0.600000
-0.567290 -0.601095 -0.210823 0.600000 0.000000 0.300000
-0.390789 0.047833 0.205616 0.500000 0.000000 0.500000
-0.091473 0.761690 0.131927 0.300000 0.000000 0.600000
-0.567290 0.366907 0.073516 0.600000 0.000000 0.300000
-0.496446 -0.088247 0.260731 0.600000 0.000000 0.300000
-0.549906 0.139243 -0.103459 0.600000 0.000000 0.300000
0.237311 0.424318 -0.111317 0.000000 0.500000 0.500000
0.408599 -0.815153 0.013498 0.600000 0.300000 0.000000
-0.541161 0.448797 0.260731 0.600000 0.000000 0.300000
-0.188987 -0.259968 -0.250637 0.300000 0.000000 0.600000
0.305583 -0.387282 0.086655 0.500000 0.500000 0.000000
0.506573 0.424318 -0.024907 0.000000 0.500000 0.500000
-0.220300 0.071011 -0.237504 0.500000 0.000000 0.500000
-0.210478 -0.538262 0.278115 0.600000 0.000000 0.300000
0.545261 -0.108215 0.180192 0.300000 0.600000 0.000000
0.527877 0.517620 0.100411 0.300000 0.600000 0.000000
-0.092531 0.071011 0.180579 0.500000 0.000000 0.500000
-0.468098 0.019992 -0.250637 0.300000 0.000000 0.600000
0.506658 0.738512 -0.073103 0.300000 0.000000 0.600000
0.114608 -0.815153 0.117319 0.600000 0.300000 0.000000
-0.172193 0.264226 0.260731 0.600000 0.000000 0.300000
-0.155165 -0.051208 -0.273815 0.000000 0.000000 1.000000
0.294057 0.761690 -0.148621 0.300000 0.000000 0.600000
-0.327998 -0.701296 0.260731 0.600000 0.000000 0.300000
-0.542875 0.219321 0.260731 0.600000 0.000000 0.300000
-0.142829 -0.791975 0.060410 0.600000 0.300000 0.000000
0.043239 0.722543 0.278115 0.600000 0.300000 0.000000
0.527877 0.051713 0.185972 0.300000 0.600000 0.000000
0.125249 -0.812256 0.273306 0.000000 0.000000 1.000000
0.335189 -0.599347 0.260731 0.000000 0.000000 1.000000
-0.277064 -0.646413 0.278115 0.600000 0.000000 0.300000
0.545261 -0.466705 -0.061232 0.300000 0.600000 0.000000
-0.440345 -0.791975 -0.186233 0.600000 0.300000 0.000000
-0.509818 0.401140 -0.081815 0.000000 0.500000 0.500000
-0.265690 -0.815153 0.156136 0.600000 0.300000 0.000000
0.280485 0.047833 0.147639 0.500000 0.000000 0.500000
-0.314684 -0.387282 0.110874 0.500000 0.500000 0.000000
-0.208264 0.424318 0.094348 0.000000 0.500000 0.500000
-0.241407 0.047833 0.067241 0.500000 0.000000 0.500000
0.097928 0.401140 -0.046529 0.000000 0.500000 0.500000
-0.549906 -0.329058 0.152013 0.600000 0.000000 0.300000
-0.261374 -0.482475 -0.250637 0.300000 0.000000 0.600000
0.477644 -0.400247 -0.250637 0.300000 0.000000 0.600000
-0.549906 0.637829 -0.113238 0.600000 0.000000 0.300000
0.161832 0.424318 0.046863 0.000000 0.500000 0.500000
0.527877 -0.666080 -0.182077 0.300000 0.600000 0.000000
-0.549906 0.415166 -0.054560 0.600000 0.000000 0.300000
-0.180600 -0.791975 -0.170019 0.600000 0.300000 0.000000
-0.340780 0.071011 0.095801 0.500000 0.000000 0.500000
-0.413671 0.401140 -0.039540 0.000000 0.500000 0.500000
0.194733 -0.161592 0.260731 0.000000 0.000000 1.000000
-0.234065 0.483393 0.260731 0.600000 0.000000 0.300000
0.527877 0.242880 0.207159 0.300000 0.600000 0.000000
-0.549906 0.192498 -0.048589 0.600000 0.000000 0.300000
-0.067260 0.050686 0.278115 0.600000 0.000000 0.300000
-0.269530 -0.815153 0.018654 0.600000 0.300000 0.000000
-0.567290 -0.421954 -0.255591 0.600000 0.000000 0.300000
0.129602 0.426737 0.260731 0.600000 0.300000 0.000000
-0.110203 0.071011 -0.196448 0.500000 0.000000 0.500000
0.070118 -0.643404 -0.250637 0.300000 0.000000 0.600000
-0.296737 -0.748795 0.260731 0.600000 0.000000 0.300000
0.007191 0.168589 -0.256431 0.300000 0.000000 0.600000
-0.308408 0.634153 -0.256431 0.300000 0.000000 0.600000
-0.567290 0.591389 -0.253357 0.600000 0.000000 0.300000
-0.537868 -0.716766 0.260731 0.600000 0.000000 0.300000
0.015938 0.164064 0.278115 0.600000 0.300000 0.000000
0.363926 -0.364104 -0.083732 0.500000 0.500000 0.000000
0.233491 -0.274859 -0.250637 0.300000 0.000000 0.600000
0.527877 0.690292 0.249822 0.300000 0.600000 0.000000
0.239284 0.523860 -0.256431 0.300000 0.000000 0.600000
0.335311 0.401140 -0.082479 0.000000 0.500000 0.500000
-0.120243 -0.815153 -0.211292 0.600000 0.300000 0.000000
-0.029684 0.690482 -0.256431 0.300000 0.000000 0.600000
0.287423 -0.072386 -0.256431 0.300000 0.000000 0.600000
0.333913 0.541497 0.260731 0.600000 0.300000 0.000000
-0.233067 -0.815153 0.222897 0.600000 0.300000 0.000000
-0.055576 0.047833 -0.097489 0.500000 0.000000 0.500000
0.267877 0.401140 0.239192 0.000000 0.500000 0.500000
-0.286492 -0.210685 0.278115 0.600000 0.000000 0.300000
0.013070 0.738512 0.244510 0.300000 0.000000 0.600000
-0.549906 0.534243 0.035013 0.600000 0.000000 0.300000
-0.137715 0.035630 -0.256431 0.300000 0.000000 0.600000
-0.423300 -0.024039 -0.273815 0.000000 0.000000 1.000000
-0.116913 0.424318 -0.129276 0.000000 0.500000 0.500000
0.325575 0.073889 -0.250637 0.300000 0.000000 0.600000
