ply
format ascii 1.0
element vertex 1270
property float x
property float y
property float z
property uchar red
property uchar green
property uchar blue
end_header
-0.512091 0.123211 0.278115 153 0 76
-0.549906 -0.623937 -0.067012 153 0 76
0.166488 0.254379 -0.250637 76 0 153
0.275122 -0.063260 0.278115 0 0 255
0.391752 0.716713 -0.273815 255 0 0
-0.458740 0.551852 0.278115 153 0 76
0.042936 -0.791975 -0.038199 153 76 0
-0.019623 -0.509286 0.260731 153 0 76
-0.567290 0.600165 -0.053877 153 0 76
0.376659 0.199798 0.278115 153 76 0
-0.329323 0.637009 -0.273815 255 0 0
-0.055000 0.054787 -0.256431 76 0 153
-0.123110 -0.206885 0.278115 153 0 76
0.284261 -0.815153 -0.060550 153 76 0
-0.549906 0.200620 -0.036590 153 0 76
0.346609 0.417321 -0.256431 76 0 153
-0.359769 -0.364104 -0.089287 127 127 0
-0.328124 -0.815153 0.116606 153 76 0
-0.567290 -0.444605 -0.233423 153 0 76
0.545261 0.575936 0.065465 76 153 0
0.033111 0.738512 -0.058820 76 0 153
0.315733 -0.387282 0.097920 127 127 0
-0.154579 0.071011 0.096565 127 0 127
0.024576 -0.364104 0.055185 127 127 0
-0.043098 -0.815153 0.177467 153 76 0
-0.322974 0.230317 -0.256431 76 0 153
0.189163 -0.565692 -0.250637 76 0 153
-0.361494 0.424318 0.078987 0 127 127
0.143202 0.522674 -0.250637 76 0 153
-0.324872 0.761690 0.117042 76 0 153
-0.069681 0.761690 0.141757 76 0 153
-0.093470 0.190930 0.278115 153 0 76
0.545261 -0.064742 -0.251528 76 0 153
-0.436410 -0.815153 -0.078303 153 76 0
-0.292932 -0.127722 -0.256431 76 0 153
-0.336494 -0.766588 -0.273815 204 51 127
-0.346243 -0.363775 0.278115 153 0 76
-0.567290 0.542119 -0.272817 153 0 76
-0.079519 -0.813427 -0.273815 153 76 0
0.328255 0.761560 0.278115 153 76 0
-0.371101 0.071011 0.076573 127 0 127
0.545261 -0.645563 0.057908 76 153 0
0.545261 0.137136 0.105942 76 153 0
-0.429291 0.761690 -0.097822 76 0 153
0.425089 0.424318 -0.032212 0 127 127
-0.010024 0.424318 -0.108549 0 127 127
-0.549906 -0.196959 -0.055299 153 0 76
0.042409 -0.390634 -0.250637 76 0 153
-0.159854 0.442903 0.260731 0 127 127
0.079699 0.401140 0.104330 0 127 127
0.527877 -0.597356 -0.141770 76 153 0
0.160952 0.071011 0.155564 127 0 127
0.236148 0.738512 -0.097444 76 0 153
0.511377 0.047833 -0.082453 127 0 127
-0.214590 0.401140 -0.127643 0 127 127
0.395040 -0.387282 -0.123002 127 127 0
-0.560854 0.341697 -0.273815 153 0 76
0.545261 -0.170382 0.163390 76 153 0
-0.433727 -0.764775 0.278115 153 0 76
0.073795 -0.689851 0.278115 0 0 255
0.186516 0.071011 -0.165927 127 0 127
-0.135094 -0.387282 -0.075389 127 127 0
-0.567290 -0.044292 -0.180796 153 0 76
0.545261 -0.796524 -0.269627 76 0 153
0.524312 0.490138 0.278115 153 76 0
0.545261 0.720121 -0.159153 76 153 0
0.532927 0.366072 -0.273815 76 153 0
-0.128553 0.761690 -0.270575 76 0 153
-0.567290 -0.386166 0.233688 127 127 0
-0.397116 0.031194 -0.273815 0 0 255
-0.567290 0.394964 -0.048820 153 0 76
0.317584 0.401140 0.124795 0 127 127
-0.433930 0.750110 0.278115 153 0 76
-0.208589 -0.493870 0.278115 153 0 76
0.326411 -0.720309 0.278115 0 0 255
-0.567290 -0.591474 0.116808 153 0 76
0.545261 -0.381805 0.183989 76 153 0
0.541294 0.119343 -0.273815 76 153 0
0.545261 -0.273960 -0.190659 76 153 0
-0.567290 0.571968 0.132608 153 0 76
-0.317134 -0.307869 -0.256431 76 0 153
-0.513669 -0.621004 -0.250637 76 0 153
-0.191305 -0.458803 -0.250637 76 0 153
0.205996 -0.280142 -0.250637 76 0 153
0.044591 0.714590 0.278115 153 76 0
-0.385026 -0.364104 0.089010 127 127 0
-0.058019 -0.125911 -0.250637 76 0 153
-0.447143 0.071011 -0.108723 127 0 127
0.398797 0.245121 -0.256431 76 0 153
0.378505 -0.448874 0.260731 0 0 255
-0.328639 -0.188485 0.278115 153 0 76
-0.567290 -0.046859 0.249026 153 0 76
0.545261 0.751300 0.106261 76 153 0
0.348428 -0.493854 -0.256431 76 0 153
-0.209297 -0.645351 -0.256431 76 0 153
0.543812 0.234249 0.268379 153 76 0
-0.454298 0.379424 0.278115 153 0 76
-0.104998 0.047833 -0.084350 127 0 127
0.405617 0.371322 0.278115 153 76 0
-0.549906 -0.218299 0.116987 153 0 76
0.204153 0.650465 0.260731 153 76 0
-0.171197 -0.791975 0.063425 153 76 0
0.303919 -0.815153 -0.229468 153 76 0
-0.567290 0.132584 0.115836 153 0 76
-0.055603 -0.355326 0.309097 204 51 127
0.527877 -0.025231 0.082987 76 153 0
0.295163 -0.082037 -0.273815 76 0 153
-0.284017 0.474809 -0.256431 76 0 153
0.293843 0.586606 -0.256431 76 0 153
0.388860 0.047833 0.218511 127 0 127
0.035517 -0.166928 0.310508 255 0 0
0.048492 0.386783 -0.256431 76 0 153
-0.340888 0.138024 0.260731 153 0 76
0.416210 -0.791975 0.036880 153 76 0
0.325233 0.738512 0.117215 76 0 153
-0.013661 0.368657 0.278115 153 76 0
-0.213034 0.022362 -0.273815 0 0 255
-0.314542 0.484117 0.260731 153 0 76
0.270557 -0.234817 0.260731 0 0 255
0.167530 0.424318 0.238702 153 76 0
-0.134829 0.038570 0.260731 153 0 76
-0.567290 -0.686849 0.246409 153 0 76
0.002889 0.071011 0.130118 127 0 127
-0.549906 -0.344774 -0.113750 153 0 76
-0.565841 0.665052 0.265808 153 0 76
0.224182 0.143498 0.278115 153 76 0
-0.564088 0.761690 -0.014220 153 0 76
0.206183 0.047833 -0.005982 127 0 127
0.072378 -0.678110 -0.256431 76 0 153
0.527877 -0.285542 0.043966 76 153 0
0.158773 -0.387282 0.141849 127 127 0
0.434427 -0.110564 0.278115 0 0 255
-0.180817 0.171551 -0.256431 76 0 153
0.339753 0.071011 -0.104228 127 0 127
-0.335276 -0.601012 0.260731 153 0 76
0.013817 0.191401 -0.256431 76 0 153
0.228812 -0.403113 0.278115 0 0 255
0.053186 0.141407 0.260731 153 76 0
0.037717 -0.364104 -0.101315 127 127 0
0.407613 0.624329 0.260731 153 76 0
-0.561780 0.268366 0.278115 153 0 76
0.527877 0.260708 0.022141 76 153 0
-0.199293 -0.339344 0.260731 153 0 76
0.039359 -0.239944 -0.250637 76 0 153
-0.291639 -0.812256 0.277658 153 76 0
0.090049 0.026650 -0.273815 0 0 255
-0.407509 0.761690 -0.253668 76 0 153
0.269726 0.301347 0.260731 153 76 0
-0.421749 -0.072556 0.260731 153 0 76
-0.140497 0.445500 -0.256431 76 0 153
-0.567290 -0.773827 -0.028078 153 0 76
0.512217 0.634152 -0.273815 255 0 0
-0.066755 -0.387282 0.166736 127 127 0
0.543664 -0.710459 0.260731 0 0 255
0.545261 0.387252 -0.108948 76 153 0
-0.433796 -0.387282 -0.211923 127 127 0
-0.187807 0.761690 0.057642 76 0 153
0.214433 0.401140 -0.196306 0 127 127
-0.065636 -0.656981 0.260731 153 0 76
-0.425476 0.532558 -0.256431 76 0 153
-0.110873 0.749359 0.278115 153 0 76
0.058901 0.640184 -0.256431 255 0 0
0.527877 -0.515467 0.119883 76 153 0
0.223774 -0.421348 -0.250637 76 0 153
0.028857 -0.815153 -0.177823 153 76 0
-0.264950 0.761690 -0.230283 76 0 153
-0.467689 0.236136 -0.256431 76 0 153
0.242718 -0.695139 -0.273815 204 51 127
-0.009066 0.761690 -0.194677 76 0 153
0.397164 -0.596763 0.278115 0 0 255
0.541612 -0.644676 -0.273815 76 153 0
-0.567290 -0.481450 -0.086013 153 0 76
-0.247564 0.401140 0.157671 0 127 127
-0.232345 0.339490 -0.256431 76 0 153
0.433496 -0.791975 -0.175862 153 76 0
0.138266 -0.084753 0.260731 0 0 255
0.330813 -0.815153 0.155121 153 76 0
0.171025 -0.791975 -0.138561 153 76 0
0.527877 -0.428979 -0.135315 76 153 0
-0.292967 0.761690 0.275671 153 0 76
-0.565841 0.463140 0.277923 153 0 76
0.264325 0.761690 -0.233093 76 0 153
-0.549906 0.282846 -0.149081 153 0 76
0.418299 -0.359300 -0.256431 76 0 153
0.527877 0.614072 -0.067075 76 153 0
0.183613 -0.791975 0.030863 153 76 0
0.114580 -0.483441 0.278115 0 0 255
-0.149575 -0.812256 0.264751 153 76 0
-0.440696 0.738512 0.041914 76 0 153
0.426715 0.529362 -0.250637 76 0 153
-0.100283 0.569841 0.278115 153 0 76
0.545261 -0.793008 0.087628 76 153 0
-0.212613 -0.815153 -0.243206 153 76 0
-0.549906 -0.726146 -0.157371 153 0 76
0.439444 0.738512 0.193450 76 0 153
-0.549906 0.452583 -0.171074 153 0 76
-0.549906 0.651475 -0.178846 153 0 76
-0.168930 0.302793 0.260731 153 0 76
0.417360 -0.364104 0.010662 127 127 0
0.545261 0.445101 0.028788 76 153 0
-0.567290 0.065217 -0.046127 153 0 76
-0.450380 -0.815153 0.058584 153 76 0
-0.331530 0.424318 -0.056434 0 127 127
0.035109 0.071011 -0.158118 127 0 127
-0.457022 -0.087665 -0.250637 76 0 153
0.253072 0.148157 -0.256431 76 0 153
-0.476338 0.047833 0.165519 127 0 127
-0.255641 0.047833 0.011878 127 0 127
-0.238956 -0.364104 -0.156454 127 127 0
-0.197340 0.637105 -0.250637 76 0 153
-0.344838 0.625596 0.278115 153 0 76
0.150353 0.738512 0.004439 76 0 153
0.369032 0.761690 -0.139102 76 0 153
0.064811 -0.815153 0.090880 153 76 0
-0.271105 0.047833 0.161953 127 0 127
-0.315142 -0.815153 -0.015291 153 76 0
-0.078811 -0.815153 -0.083948 153 76 0
0.072820 -0.815153 0.240031 153 76 0
-0.491918 0.424318 0.068486 0 127 127
-0.446358 -0.815153 -0.222053 153 76 0
-0.039596 0.424318 0.152532 0 127 127
-0.089601 -0.083066 0.260731 153 0 76
-0.425487 0.250888 0.278115 153 0 76
0.042734 0.738512 0.082439 76 0 153
0.334661 0.401140 -0.128823 0 127 127
-0.558619 -0.812256 0.275818 153 0 76
-0.093970 0.738512 -0.037139 76 0 153
-0.253603 -0.364104 -0.016578 127 127 0
0.527877 0.589812 0.197093 76 153 0
-0.367739 0.353345 -0.256431 76 0 153
0.417020 -0.049647 -0.250637 76 0 153
0.144970 -0.364104 0.012315 127 127 0
0.200113 -0.737779 0.278115 0 0 255
-0.220038 0.176182 0.278115 153 0 76
0.540906 -0.225564 0.278115 0 0 255
-0.328022 -0.791975 -0.142754 153 76 0
0.299414 -0.387282 -0.033688 127 127 0
0.545261 -0.724903 -0.164923 76 153 0
0.138674 0.040811 0.278115 0 0 255
0.420345 -0.364104 0.173896 127 127 0
0.466524 -0.545648 -0.250637 76 0 153
-0.327691 0.738512 -0.014541 76 0 153
-0.567260 -0.319590 -0.273815 153 0 76
0.066553 -0.524925 -0.250637 76 0 153
-0.071509 -0.387282 -0.184107 127 127 0
0.545261 0.747774 -0.026244 76 153 0
0.039770 -0.387282 0.233479 127 127 0
0.454357 0.424318 -0.188433 0 127 127
0.545261 0.243039 -0.254765 76 153 0
0.543812 0.359286 0.268455 76 153 0
-0.549906 0.137612 -0.149874 153 0 76
-0.567290 -0.467763 0.134588 153 0 76
-0.549906 0.299319 0.039963 153 0 76
0.220859 0.018348 -0.273815 0 0 255
-0.213679 -0.122743 0.260731 153 0 76
0.088281 0.401140 -0.033645 0 127 127
0.203010 0.424318 0.081628 0 127 127
-0.198557 0.738512 0.190252 76 0 153
-0.445131 -0.437475 0.260731 153 0 76
0.184542 0.646270 -0.256431 76 0 153
0.124296 0.738512 -0.151112 76 0 153
-0.300424 0.108620 -0.250637 76 0 153
-0.464330 -0.387282 -0.027217 127 127 0
0.493537 0.114773 0.260731 153 76 0
0.278465 0.306492 -0.250637 76 0 153
0.441039 0.424318 0.091262 0 127 127
-0.549906 -0.059050 -0.058498 153 0 76
-0.396561 -0.658298 -0.250637 76 0 153
0.507481 0.761690 -0.267818 76 0 153
0.501227 -0.446285 0.278115 0 0 255
0.545261 -0.554827 -0.028504 76 153 0
0.492930 -0.174845 -0.256431 76 0 153
-0.462209 0.654757 -0.273815 255 0 0
-0.248572 0.424318 0.032045 0 127 127
-0.095962 -0.364104 0.042815 127 127 0
-0.567290 -0.705892 0.076961 153 0 76
0.123315 0.140426 -0.250637 76 0 153
-0.079315 -0.692444 -0.273815 204 51 127
0.473806 0.071011 0.029514 127 0 127
0.284588 0.071011 0.163459 127 0 127
0.470398 0.047833 -0.205090 127 0 127
0.158691 0.761690 0.261388 76 0 153
-0.047112 -0.815153 0.048248 153 76 0
-0.177453 -0.096520 -0.256431 76 0 153
-0.318653 -0.428214 -0.256431 76 0 153
0.527877 -0.062752 -0.124786 76 153 0
-0.448811 0.401140 -0.042311 0 127 127
-0.371043 0.401140 0.196414 0 127 127
0.545261 0.469623 0.144774 76 153 0
-0.457637 -0.495020 -0.256431 76 0 153
-0.567290 -0.169420 -0.171614 153 0 76
0.545261 -0.321825 -0.082475 76 153 0
0.105704 0.424318 -0.155919 0 127 127
-0.118636 0.424318 -0.062027 0 127 127
-0.446433 0.738512 0.161259 76 0 153
0.289387 0.761690 0.007126 76 0 153
0.009106 0.497785 -0.250637 76 0 153
0.545261 0.146746 -0.025655 76 153 0
0.151594 0.546466 0.278115 153 76 0
-0.549906 0.760909 -0.135487 153 0 76
0.545261 -0.680691 -0.054261 76 153 0
-0.549906 0.668900 0.068570 153 0 76
-0.567290 0.506760 0.032603 153 0 76
-0.470686 0.047833 0.019071 127 0 127
-0.411690 0.046549 0.278115 153 0 76
-0.224080 -0.791975 0.167348 153 76 0
-0.018479 0.424318 0.036028 0 127 127
-0.503583 0.047833 -0.215091 127 0 127
-0.476751 -0.364104 0.160277 127 127 0
0.328565 -0.343699 0.260731 0 0 255
-0.472054 -0.319961 0.278115 153 0 76
0.306228 0.401140 0.009729 0 127 127
-0.549906 -0.096705 0.146578 153 0 76
-0.114827 0.738512 -0.150476 76 0 153
-0.322439 -0.476448 0.278115 153 0 76
-0.296148 -0.387282 0.177389 127 127 0
-0.061496 0.071011 0.019237 127 0 127
-0.151812 0.071011 -0.186122 127 0 127
-0.567290 -0.560823 -0.169638 153 0 76
0.303998 -0.338434 -0.256431 76 0 153
-0.022275 -0.764795 0.278115 153 0 76
0.005252 0.248025 0.278115 153 76 0
0.545261 0.128758 -0.160318 76 153 0
0.304655 -0.598527 -0.250637 76 0 153
-0.461631 -0.791975 0.171319 153 76 0
-0.000586 -0.261951 0.260731 0 0 255
-0.549906 0.233908 0.162927 153 0 76
-0.549906 -0.514463 0.020672 153 0 76
-0.235329 -0.224958 -0.256431 76 0 153
0.502738 0.047833 0.165402 127 0 127
-0.476871 0.428248 -0.256431 76 0 153
-0.324430 0.738512 -0.132556 76 0 153
0.527877 0.240226 0.156533 76 153 0
-0.374039 -0.205597 -0.250637 76 0 153
0.396144 -0.815153 -0.072167 153 76 0
0.293648 0.055197 0.278115 0 0 255
0.413249 0.496106 0.260731 153 76 0
-0.406897 0.141308 -0.256431 76 0 153
0.165059 -0.194180 0.260731 0 0 255
-0.049325 0.684119 -0.273815 255 0 0
-0.567290 -0.275601 0.216343 153 0 76
0.389534 -0.812256 0.277412 0 0 255
0.125807 -0.593822 0.260731 0 0 255
0.545261 -0.111117 0.256647 76 153 0
-0.363961 0.071011 -0.033310 127 0 127
0.545261 0.498192 -0.067484 76 153 0
-0.567290 0.466194 0.162410 153 0 76
-0.080647 -0.469503 -0.256431 76 0 153
-0.116580 -0.557836 0.278115 153 0 76
-0.430718 -0.654864 0.260731 153 0 76
-0.549906 -0.140852 0.039464 153 0 76
0.140292 -0.364104 -0.208773 127 127 0
0.256746 0.483660 -0.256431 76 0 153
0.435870 -0.709410 0.278115 0 0 255
0.291745 -0.791975 0.045807 153 76 0
0.527877 -0.657043 0.166950 76 153 0
0.271942 -0.815153 0.251489 0 0 255
0.488599 -0.387282 0.089577 127 127 0
-0.481426 -0.722321 -0.273815 76 0 153
0.250078 -0.178117 -0.250637 76 0 153
-0.053805 0.093497 0.307790 76 0 153
0.267569 0.408524 0.278115 153 76 0
-0.567290 -0.500038 0.239815 153 0 76
0.060964 0.424318 0.208711 0 127 127
-0.332442 -0.713132 0.260731 153 0 76
-0.561626 -0.128710 -0.273815 153 0 76
0.545261 0.481468 -0.271869 76 153 0
0.032025 -0.065796 -0.250637 76 0 153
0.527877 -0.277565 0.161568 76 153 0
-0.227255 -0.234922 0.278115 153 0 76
-0.549906 -0.279182 0.015949 153 0 76
-0.222052 0.536686 0.278115 153 0 76
0.527877 -0.166837 -0.152667 76 153 0
0.256548 0.761690 0.196895 76 0 153
-0.129456 -0.421072 0.260731 153 0 76
0.522699 -0.335249 0.278115 0 0 255
0.527877 -0.143175 0.058365 76 153 0
-0.130614 -0.791975 -0.174797 153 76 0
-0.057781 0.471999 0.278115 153 0 76
-0.048661 0.664806 0.260731 153 0 76
0.123288 0.071011 0.055590 127 0 127
-0.254820 0.389548 0.278115 153 0 76
-0.098266 0.401140 -0.162811 0 127 127
0.287286 -0.387282 -0.154163 127 127 0
0.252748 -0.364104 0.182307 127 127 0
0.462402 0.424318 0.202430 0 127 127
0.397392 -0.798742 -0.273815 204 51 127
0.339945 -0.156680 0.260731 0 0 255
-0.363093 0.071011 -0.176216 127 0 127
0.530150 -0.812256 0.278050 0 0 255
0.031625 -0.774889 -0.273815 153 76 0
-0.310606 -0.026594 -0.273815 76 0 153
-0.567290 0.498006 -0.073392 153 0 76
-0.307983 0.401140 -0.186090 0 127 127
0.284832 0.047833 -0.190240 127 0 127
-0.374508 0.071011 0.184331 127 0 127
0.303482 0.616255 0.278115 153 76 0
0.541117 -0.334901 -0.273815 76 153 0
0.031861 0.761690 0.187461 76 0 153
-0.471942 0.401140 0.176056 0 127 127
-0.567290 0.226156 -0.233381 153 0 76
-0.198225 0.534403 -0.250637 76 0 153
-0.567290 0.074934 0.204725 127 0 127
0.437148 0.150115 -0.250637 76 0 153
-0.145582 0.401140 0.167630 0 127 127
-0.232753 0.071711 0.260731 153 0 76
-0.155785 -0.558134 -0.256431 76 0 153
0.023379 -0.601194 0.278115 0 0 255
-0.526298 0.761690 0.236989 76 0 153
0.425623 0.343226 -0.256431 76 0 153
0.437917 0.738512 0.092136 76 0 153
-0.447006 0.651224 0.260731 153 0 76
-0.039910 -0.314762 -0.250637 76 0 153
0.096386 0.629545 0.260731 153 76 0
-0.227265 -0.357878 -0.256431 127 127 0
-0.567290 0.551786 -0.170846 153 0 76
-0.029594 -0.387282 -0.030141 127 127 0
-0.370279 -0.815153 0.207971 153 76 0
-0.417658 -0.298594 -0.256431 76 0 153
0.006920 0.294508 -0.256431 76 0 153
0.527877 0.672117 0.042607 76 153 0
-0.087802 0.071011 0.178212 127 0 127
-0.533457 -0.815153 -0.113037 153 76 0
-0.081911 0.154700 -0.256431 76 0 153
0.527877 -0.058852 -0.024638 76 153 0
-0.557970 0.565434 0.278115 153 0 76
-0.564791 -0.007904 -0.273815 153 0 76
0.464626 0.738512 -0.102991 76 0 153
0.446447 0.282285 0.260731 153 76 0
0.134362 0.047833 -0.084457 127 0 127
0.475987 -0.726588 -0.256431 76 0 153
0.144343 0.356738 -0.250637 76 0 153
0.543646 0.761690 0.208890 76 153 0
0.466416 -0.270659 -0.250637 76 0 153
0.527877 -0.051920 0.178423 76 153 0
-0.389059 -0.264942 0.260731 153 0 76
-0.098368 -0.033866 -0.256431 76 0 153
-0.567290 -0.318895 0.127753 153 0 76
-0.567290 -0.169338 0.213574 153 0 76
0.545261 -0.517511 -0.199252 76 153 0
-0.156346 0.047833 0.001238 127 0 127
-0.567290 -0.266583 -0.184957 153 0 76
-0.549906 0.667849 0.166483 153 0 76
0.410215 0.047833 0.123164 127 0 127
-0.565841 0.365536 0.270549 153 0 76
0.058957 0.047833 0.208454 127 0 127
0.365492 -0.027474 0.278115 0 0 255
0.225341 -0.364104 0.070828 127 127 0
0.361250 0.424318 0.208400 0 127 127
-0.056206 0.391674 -0.250637 76 0 153
-0.565019 0.663261 -0.273815 153 0 76
-0.241166 -0.586831 0.278115 153 0 76
0.398317 0.621904 -0.256431 255 0 0
0.419355 0.047833 -0.054227 127 0 127
-0.253668 -0.546722 -0.250637 76 0 153
0.437313 -0.453001 -0.256431 76 0 153
0.527877 0.361063 -0.013069 76 153 0
-0.405682 0.462028 0.278115 153 0 76
-0.303500 -0.678178 -0.256431 76 0 153
-0.567290 0.041736 -0.140031 153 0 76
-0.146158 -0.186239 -0.250637 76 0 153
0.545261 0.624242 -0.185209 76 153 0
0.328734 -0.533163 0.260731 0 0 255
-0.567290 -0.595314 0.221032 153 0 76
0.129815 -0.389246 0.278115 0 0 255
0.135595 -0.455908 -0.250637 76 0 153
0.257847 0.071011 0.071216 127 0 127
0.482858 -0.387282 -0.054574 127 127 0
-0.567290 -0.537574 -0.261371 153 0 76
-0.164304 -0.733992 -0.273815 204 51 127
0.038311 0.738512 -0.273157 76 0 153
-0.567290 0.295877 -0.052664 153 0 76
-0.501283 0.023034 0.260731 153 0 76
-0.480044 0.738512 -0.198306 76 0 153
-0.341971 -0.364104 -0.185590 127 127 0
0.154151 -0.723654 -0.250637 76 0 153
0.129047 -0.212671 -0.250637 76 0 153
0.236162 0.738512 0.080591 76 0 153
0.234206 0.401140 0.167153 0 127 127
0.527877 0.323756 -0.175280 76 153 0
0.275996 0.678451 -0.273815 255 0 0
0.260866 -0.656116 0.260731 0 0 255
0.476634 0.756851 0.278115 153 76 0
0.527877 -0.763568 0.000848 76 153 0
-0.389906 -0.364104 0.194300 127 127 0
0.034357 0.100423 -0.256431 76 0 153
0.527877 0.667689 0.145846 76 153 0
-0.192065 -0.032863 0.278115 153 0 76
-0.077813 0.294065 0.278115 153 0 76
-0.458086 0.331650 -0.250637 76 0 153
0.472054 -0.364104 -0.171623 127 127 0
0.059865 -0.387282 0.137924 127 127 0
-0.260288 -0.407450 0.278115 153 0 76
0.216164 -0.311158 0.278115 0 0 255
0.141983 0.182795 0.260731 153 76 0
-0.549906 -0.614679 0.028744 153 0 76
-0.422824 -0.163587 0.278115 153 0 76
0.321844 -0.791975 -0.141918 153 76 0
0.092906 0.372521 0.278115 153 76 0
-0.359237 0.761690 0.202705 76 0 153
-0.549906 0.688252 -0.078575 153 0 76
-0.373954 0.455359 -0.250637 76 0 153
0.545261 -0.765611 0.175653 76 153 0
0.528356 0.027547 -0.273815 76 153 0
-0.567290 -0.695932 -0.248732 153 0 76
-0.095828 0.761690 0.053390 76 0 153
-0.138513 -0.382330 -0.256431 76 0 153
0.444540 -0.516689 0.260731 0 0 255
0.249566 0.071011 -0.086970 127 0 127
-0.153521 -0.815153 -0.027476 153 76 0
-0.016393 0.071011 -0.081914 127 0 127
0.445754 0.761690 -0.200172 76 0 153
-0.567290 0.437491 -0.267409 153 0 76
0.545261 -0.475489 0.200310 76 153 0
0.449118 0.013430 0.278115 0 0 255
-0.567290 0.211616 0.070139 153 0 76
-0.338736 -0.387282 0.006489 127 127 0
-0.133501 -0.791975 0.157590 153 76 0
0.478989 0.570563 0.278115 153 76 0
0.192489 0.346208 0.278115 153 76 0
-0.567290 -0.005957 0.147226 153 0 76
-0.304514 -0.101688 0.260731 153 0 76
-0.182389 0.071011 0.182838 127 0 127
-0.396129 -0.526244 0.260731 153 0 76
0.003741 -0.094325 0.260731 0 0 255
0.541710 -0.815153 -0.167544 76 153 0
-0.444389 -0.364104 -0.120900 127 127 0
-0.125682 -0.722585 0.278115 153 0 76
-0.037835 0.761690 -0.109254 76 0 153
0.349340 0.168705 -0.256431 76 0 153
0.206197 -0.068554 -0.256431 76 0 153
0.146912 -0.815153 -0.047719 153 76 0
-0.428633 0.156915 0.260731 153 0 76
-0.116273 -0.296359 0.278115 153 0 76
-0.471547 -0.364104 0.065411 127 127 0
-0.058017 0.047833 -0.160530 127 0 127
-0.511656 -0.115886 0.260731 153 0 76
-0.181097 0.260725 -0.250637 76 0 153
0.401448 0.112870 0.278115 153 76 0
0.326721 -0.741439 -0.273815 204 51 127
-0.567290 0.188237 0.239904 153 0 76
0.545261 0.007395 -0.179324 76 153 0
-0.535927 -0.791975 0.054841 153 76 0
-0.567290 0.366591 -0.183854 153 0 76
0.220501 0.071011 0.224623 127 0 127
0.370823 -0.125185 -0.250637 76 0 153
0.355645 0.290077 0.278115 153 76 0
0.041364 -0.437822 0.305818 255 0 0
0.545261 -0.233982 -0.092889 76 153 0
0.545261 0.021362 0.007208 76 153 0
0.415820 -0.815153 0.122382 153 76 0
-0.567290 0.121257 0.028555 153 0 76
-0.296014 -0.364104 0.092560 127 127 0
-0.202981 0.071011 -0.070574 127 0 127
0.484967 -0.636642 0.278115 0 0 255
-0.160817 -0.387282 0.186060 127 127 0
-0.281669 -0.303702 0.278115 153 0 76
0.200164 -0.019223 0.260731 0 0 255
-0.016051 0.738512 0.017455 76 0 153
0.545261 0.429728 -0.201169 76 153 0
-0.342256 0.375331 0.278115 153 0 76
0.545261 0.164594 0.210874 76 153 0
0.219984 -0.791975 -0.221973 153 76 0
-0.567290 -0.364800 -0.197812 127 127 0
0.235872 -0.143025 0.260731 0 0 255
0.041403 -0.324660 0.304663 255 0 0
-0.331302 0.724358 -0.273815 255 0 0
-0.494780 0.401140 -0.127402 0 127 127
-0.288322 0.563784 -0.250637 76 0 153
-0.258010 -0.791975 0.056993 153 76 0
0.420772 -0.369681 0.260731 0 0 255
0.256346 -0.501721 -0.256431 76 0 153
-0.567290 -0.727725 0.160914 153 0 76
0.336715 -0.387282 0.186252 127 127 0
-0.152643 -0.364104 -0.163695 127 127 0
-0.567290 -0.401957 -0.051179 153 0 76
-0.215553 0.424318 -0.218983 0 127 127
0.214616 0.236973 0.278115 153 76 0
0.098584 -0.302723 -0.256431 76 0 153
-0.567290 0.393003 0.039922 153 0 76
-0.182571 0.738512 -0.207190 76 0 153
-0.059225 -0.159189 0.311139 153 0 76
-0.050081 -0.229383 -0.256431 76 0 153
0.318771 0.738512 -0.073194 76 0 153
0.002758 0.424318 -0.193990 0 127 127
0.098712 0.478735 0.278115 153 76 0
0.527877 -0.508666 -0.103268 76 153 0
0.162995 -0.815153 0.254606 0 0 255
0.088185 -0.791975 -0.116279 153 76 0
-0.529093 0.047833 0.087712 127 0 127
-0.242129 0.738512 -0.009563 76 0 153
0.320907 0.137149 0.260731 153 76 0
0.148087 0.424318 0.150319 0 127 127
-0.201294 0.424318 -0.039792 0 127 127
-0.168321 -0.387282 0.003600 127 127 0
0.456384 -0.202446 0.260731 0 0 255
0.298495 -0.253305 -0.256431 76 0 153
0.297634 0.047833 -0.014339 127 0 127
-0.519275 0.761690 0.065562 76 0 153
-0.101988 0.375820 0.278115 153 0 76
-0.027553 0.761690 0.265920 76 0 153
0.543371 -0.242665 -0.273815 76 153 0
-0.508083 -0.388117 -0.256431 76 0 153
0.335475 -0.006228 -0.273815 0 0 255
0.004289 -0.467470 -0.256431 76 0 153
0.385685 -0.571349 -0.250637 76 0 153
0.111397 -0.602888 -0.256431 76 0 153
0.251774 0.725083 0.278115 153 76 0
0.168435 0.438863 -0.256431 0 127 127
-0.549906 -0.641334 -0.150787 153 0 76
-0.375729 -0.110276 -0.250637 76 0 153
0.457749 -0.631624 -0.250637 76 0 153
0.221442 0.493439 0.278115 153 76 0
-0.236209 0.071011 -0.194771 127 0 127
-0.549906 -0.693033 -0.004472 153 0 76
-0.219752 -0.765883 0.260731 153 0 76
0.545261 0.428187 0.218059 76 153 0
0.200485 -0.482667 0.260731 0 0 255
-0.486202 0.738512 -0.035846 76 0 153
0.111195 -0.815153 -0.194803 153 76 0
-0.432612 -0.575277 -0.256431 76 0 153
0.355737 0.738512 0.200305 76 0 153
0.295100 -0.454415 0.278115 0 0 255
-0.058280 -0.438958 0.304161 204 51 127
-0.375414 0.543523 0.278115 153 0 76
0.466448 0.193935 0.260731 153 76 0
0.407506 0.709891 0.278115 153 76 0
0.545261 -0.223092 0.098673 76 153 0
0.162371 0.401140 0.012577 0 127 127
0.027263 -0.157443 -0.250637 76 0 153
0.105937 0.071011 -0.205026 127 0 127
0.090803 0.292850 -0.250637 76 0 153
0.376312 0.047833 -0.177996 127 0 127
0.082558 0.047833 0.125655 127 0 127
0.079922 -0.216460 0.260731 0 0 255
0.123023 -0.364104 -0.068879 127 127 0
0.545261 0.301236 -0.068290 76 153 0
-0.549906 0.593239 0.034573 153 0 76
-0.209708 0.761690 0.269063 153 0 76
-0.478106 -0.010942 -0.273815 0 0 255
-0.325775 0.056984 0.278115 153 0 76
0.360268 -0.387282 -0.198186 127 127 0
-0.151477 0.361079 -0.256431 76 0 153
0.348516 0.502397 -0.250637 76 0 153
-0.399565 -0.791975 -0.002387 153 76 0
0.192585 0.738512 -0.197535 76 0 153
-0.340778 0.220566 0.260731 153 0 76
-0.239436 0.761690 0.122422 76 0 153
0.256962 -0.791975 0.126850 153 76 0
0.545261 -0.562478 -0.270484 76 153 0
0.402513 -0.364104 0.093587 127 127 0
-0.067429 -0.005797 0.278115 153 0 76
0.153067 -0.672758 0.260731 0 0 255
-0.051123 -0.815153 -0.196392 153 76 0
0.363850 0.761690 0.042697 76 0 153
-0.549906 -0.424753 -0.144528 153 0 76
0.111813 0.761690 -0.064181 76 0 153
0.213307 0.569441 -0.256431 76 0 153
-0.027075 0.047833 0.228194 127 0 127
-0.368888 0.702001 0.260731 153 0 76
0.245145 0.231336 -0.250637 76 0 153
0.349056 0.761690 -0.218496 76 0 153
-0.549906 -0.263708 -0.102528 153 0 76
-0.075280 0.047833 0.100854 127 0 127
-0.287888 0.071011 0.085411 127 0 127
-0.486025 0.306319 0.260731 153 0 76
0.438726 0.071011 -0.130919 127 0 127
0.011128 -0.387282 -0.175428 127 127 0
0.350119 -0.238352 0.278115 0 0 255
-0.483394 -0.791975 -0.012147 153 76 0
-0.162274 0.113177 0.278115 153 0 76
0.189808 0.089830 -0.250637 76 0 153
-0.486404 0.462860 0.260731 153 0 76
0.545261 -0.711594 0.105293 76 153 0
0.467552 -0.815153 -0.025142 153 76 0
-0.567290 -0.124323 -0.104213 153 0 76
0.545261 -0.573574 0.173694 76 153 0
-0.492606 0.577618 -0.250637 76 0 153
0.291705 0.738512 -0.156399 76 0 153
0.450604 0.401140 -0.110905 0 127 127
0.222393 -0.364104 -0.024199 127 127 0
0.545261 -0.347646 -0.005792 76 153 0
-0.559122 -0.815153 -0.195605 153 0 76
-0.251480 -0.791975 -0.168702 153 76 0
-0.230728 -0.791975 -0.021976 153 76 0
0.148196 -0.791975 0.103373 153 76 0
-0.395263 0.277646 -0.256431 76 0 153
-0.567290 0.211520 -0.115952 153 0 76
-0.236340 0.257068 0.260731 153 0 76
-0.516222 -0.629629 0.278115 153 0 76
0.545261 0.560822 -0.258290 76 153 0
-0.246615 -0.734844 -0.250637 204 51 127
-0.508760 -0.741433 0.260731 153 0 76
-0.403880 0.738512 -0.172486 76 0 153
-0.483838 0.117208 -0.250637 76 0 153
0.248636 0.401140 -0.119370 0 127 127
-0.366202 -0.815153 -0.216944 153 76 0
-0.411855 -0.791975 -0.153350 153 76 0
-0.250923 0.695731 -0.273815 76 0 153
0.045954 0.761690 -0.136434 76 0 153
0.046744 -0.364104 -0.021740 127 127 0
0.527877 0.375895 0.065580 76 153 0
0.271319 0.386423 -0.250637 76 0 153
-0.278559 0.738512 0.191660 76 0 153
0.527877 -0.567491 0.057791 76 153 0
0.079483 0.460158 -0.250637 76 0 153
0.062257 0.560699 -0.250637 76 0 153
-0.142599 -0.636068 0.260731 153 0 76
0.108883 -0.815153 0.169025 153 76 0
-0.385288 0.424318 0.003057 0 127 127
0.303112 -0.420327 -0.256431 76 0 153
-0.133369 0.038764 -0.256431 76 0 153
-0.006693 -0.665200 -0.256431 76 0 153
-0.134231 0.656696 0.278115 153 0 76
0.040619 0.424609 0.307609 153 76 0
0.009031 0.011033 -0.273815 76 0 153
-0.122287 0.652876 -0.273815 255 0 0
0.107699 -0.364104 0.197915 127 127 0
-0.407917 -0.741396 -0.250637 76 0 153
0.031929 -0.596106 -0.256431 76 0 153
-0.282485 0.684724 0.260731 153 0 76
0.527877 -0.215455 0.006154 76 153 0
-0.057025 -0.364104 -0.100299 127 127 0
0.212655 -0.364104 -0.177573 127 127 0
0.017737 0.626440 0.278115 153 76 0
0.091858 0.214286 -0.250637 76 0 153
0.527877 0.294364 0.213466 76 153 0
0.369470 0.401140 0.065875 0 127 127
0.305101 0.226971 0.260731 153 76 0
0.490191 0.298774 -0.250637 76 0 153
0.353492 -0.815153 -0.004171 153 76 0
0.545261 0.285747 0.094427 76 153 0
0.000915 -0.815153 -0.104573 153 76 0
-0.089424 0.424318 0.217121 0 127 127
-0.167568 0.761690 -0.024022 76 0 153
-0.021879 0.158464 0.278115 153 0 76
0.245434 -0.815153 -0.144755 153 76 0
0.029220 -0.791975 0.159048 153 76 0
0.039997 0.321082 0.309104 76 0 153
-0.557206 -0.322239 0.278115 153 0 76
0.116217 -0.755302 0.278115 0 0 255
-0.525719 -0.434933 0.278115 153 0 76
0.128700 -0.040085 -0.250637 76 0 153
-0.121291 0.761690 0.201934 76 0 153
0.481916 0.405475 0.278115 153 76 0
-0.293874 0.566553 0.278115 153 0 76
-0.296626 0.424318 0.214459 0 127 127
0.105867 -0.364104 0.079452 127 127 0
-0.549906 0.536463 0.199493 153 0 76
0.545261 0.223700 -0.043904 76 153 0
-0.063013 0.230024 -0.256431 76 0 153
0.247032 0.564664 0.260731 153 76 0
0.099421 -0.815153 0.021378 153 76 0
-0.299218 -0.791975 0.186895 153 76 0
-0.047090 0.761690 -0.273612 76 0 153
-0.062698 -0.244839 0.308615 204 51 127
-0.067722 0.488701 -0.256431 76 0 153
0.505433 0.424318 -0.051928 0 127 127
-0.400159 0.605819 -0.256431 76 0 153
-0.281144 -0.387282 -0.095709 127 127 0
0.527877 0.518810 0.012606 76 153 0
0.184016 -0.387282 0.215053 127 127 0
-0.289421 -0.815153 -0.233663 153 76 0
0.104424 0.738512 0.201043 76 0 153
0.217625 0.761690 -0.025937 76 0 153
0.361816 0.563240 0.278115 153 76 0
-0.127856 -0.364104 0.120179 127 127 0
0.490632 0.428654 -0.256431 76 0 153
0.445118 0.018401 -0.273815 0 0 255
-0.365634 -0.012858 0.260731 153 0 76
0.465848 0.691278 -0.250637 76 0 153
0.348670 0.339730 -0.256431 76 0 153
-0.143136 0.738512 0.115936 76 0 153
-0.385256 -0.466412 -0.250637 76 0 153
-0.257192 0.180982 -0.256431 76 0 153
0.543812 0.613934 0.273704 153 76 0
0.485671 0.761690 0.024434 76 0 153
0.527877 0.696420 -0.088153 76 153 0
-0.250486 0.738512 -0.153395 76 0 153
-0.382743 0.312223 0.260731 153 0 76
0.545261 0.692120 -0.230567 76 153 0
0.545261 0.067882 0.229036 76 153 0
0.372972 -0.297331 -0.250637 76 0 153
-0.494173 -0.301490 -0.256431 76 0 153
0.545261 -0.402245 -0.209111 76 153 0
0.545261 0.060709 0.102526 76 153 0
-0.300304 0.303110 -0.250637 76 0 153
0.061913 -0.536045 0.260731 0 0 255
0.339464 -0.364104 0.029086 127 127 0
0.545261 -0.434448 0.109641 76 153 0
-0.375538 -0.365895 -0.256431 127 127 0
-0.035327 0.401140 -0.034733 0 127 127
-0.281070 0.738512 0.056079 76 0 153
0.545261 -0.339099 0.106546 76 153 0
-0.549906 -0.654502 0.173158 153 0 76
0.035204 0.069418 0.278115 0 0 255
-0.203896 0.401140 0.095245 0 127 127
-0.240446 0.462268 0.260731 153 0 76
0.092457 -0.017049 0.260731 0 0 255
0.487533 -0.053472 0.278115 0 0 255
0.085084 0.761690 -0.213564 76 0 153
0.527877 0.176373 0.043224 76 153 0
0.471862 -0.815153 -0.265447 153 76 0
0.333854 0.685948 0.278115 153 76 0
-0.278560 -0.659147 0.278115 153 0 76
-0.236274 -0.052157 -0.273815 0 0 255
-0.440322 -0.166876 -0.256431 76 0 153
-0.043628 -0.364104 0.098495 127 127 0
-0.484535 0.740825 -0.273815 76 0 153
0.527877 0.463831 -0.132619 76 153 0
0.527877 -0.106993 0.126122 76 153 0
-0.491721 0.198443 0.260731 153 0 76
0.527877 0.197623 -0.185909 76 153 0
0.074662 0.212205 0.278115 153 76 0
-0.567290 -0.389705 0.153809 153 0 76
-0.423048 0.401140 0.115822 0 127 127
0.327130 -0.624674 0.278115 0 0 255
-0.388315 0.680885 -0.250637 255 0 0
-0.567290 -0.694573 -0.086645 153 0 76
0.090649 -0.387282 -0.157063 127 127 0
0.527877 0.174370 -0.100569 76 153 0
-0.567290 -0.321359 -0.044330 153 0 76
0.458717 -0.781134 0.278115 0 0 255
-0.567290 0.300939 0.210489 153 0 76
-0.567290 -0.534658 0.173098 153 0 76
0.119428 0.684343 -0.250637 76 0 153
-0.567290 0.086419 -0.205222 153 0 76
-0.167215 0.226649 0.260731 153 0 76
0.527877 -0.656701 -0.201002 76 153 0
0.023631 0.047833 0.061854 127 0 127
0.323079 0.361186 0.260731 153 76 0
-0.357194 -0.791975 -0.073737 153 76 0
-0.316692 0.424318 0.140415 0 127 127
-0.567290 -0.550692 -0.057425 153 0 76
-0.549906 0.416145 0.215317 0 127 127
0.463311 -0.791975 -0.107182 153 76 0
0.377590 -0.364104 -0.052767 127 127 0
-0.032657 -0.389025 -0.256431 127 127 0
0.179743 -0.653574 -0.256431 76 0 153
0.477991 0.652875 0.278115 153 76 0
-0.296379 0.378482 -0.256431 76 0 153
-0.029942 -0.815153 -0.024497 153 76 0
-0.038789 -0.753359 -0.256431 204 51 127
0.314706 0.424318 -0.060752 0 127 127
-0.287967 0.424318 -0.118164 0 127 127
-0.078375 -0.364104 0.236570 127 127 0
-0.205294 -0.364104 -0.090013 127 127 0
0.479378 -0.387282 0.218193 127 127 0
0.111346 0.761690 0.065603 76 0 153
-0.011153 0.424318 0.226447 0 127 127
-0.083199 -0.791975 0.238377 153 76 0
0.545261 -0.491502 0.051683 76 153 0
0.402561 0.401140 0.150258 0 127 127
0.394360 -0.791975 0.204291 153 76 0
0.000561 -0.696561 0.260731 0 0 255
-0.307608 -0.604273 -0.256431 76 0 153
-0.049419 -0.584852 0.260731 153 0 76
-0.135216 -0.650054 -0.250637 76 0 153
0.169128 0.401140 -0.125965 0 127 127
-0.508493 0.494982 -0.256431 76 0 153
-0.357598 0.047833 -0.103107 127 0 127
-0.220860 0.108570 -0.256431 76 0 153
-0.567290 0.687741 -0.006860 153 0 76
-0.397734 0.761690 -0.014023 76 0 153
0.418084 0.440390 -0.250637 76 0 153
-0.565841 0.058891 0.276658 153 0 76
0.216794 -0.791975 -0.079097 153 76 0
-0.004947 0.593165 -0.256431 76 0 153
0.465239 -0.105291 -0.250637 76 0 153
-0.493161 0.047833 -0.056168 127 0 127
0.139053 0.692781 0.278115 153 76 0
0.354270 0.446751 0.278115 153 76 0
0.545261 0.544321 0.141992 76 153 0
-0.486968 -0.811930 0.259282 153 76 0
0.193983 0.722196 -0.273815 76 0 153
-0.365101 0.738512 0.060151 76 0 153
-0.567290 0.447417 0.089205 153 0 76
-0.564556 -0.242220 -0.273815 153 0 76
0.274633 0.078067 -0.256431 76 0 153
-0.407628 -0.364104 0.015540 127 127 0
0.184755 0.179875 -0.256431 76 0 153
0.545261 0.093969 0.025114 76 153 0
0.475121 0.401140 0.021536 0 127 127
0.319754 -0.670675 -0.256431 204 51 127
0.469415 0.226995 -0.250637 76 0 153
-0.383742 -0.037582 -0.250637 76 0 153
0.024142 -0.815153 0.028456 153 76 0
-0.549906 0.612243 0.218030 153 0 76
-0.280748 -0.791975 -0.087353 153 76 0
0.545261 -0.341450 -0.163290 76 153 0
-0.549906 -0.794590 0.204616 153 76 0
-0.351084 0.524380 -0.250637 76 0 153
-0.177854 0.372813 0.278115 153 0 76
0.100982 -0.147053 0.260731 0 0 255
-0.012463 -0.190227 0.261402 153 0 76
0.058218 0.401140 -0.100743 0 127 127
0.301891 0.424318 -0.196994 0 127 127
0.545261 0.069348 -0.217118 76 153 0
-0.431741 0.047833 -0.205940 127 0 127
-0.144507 0.511505 0.278115 153 0 76
-0.403321 -0.815153 0.135305 153 76 0
0.477488 -0.815153 0.067560 153 76 0
-0.549906 0.716632 -0.210197 153 0 76
-0.361443 -0.793412 0.278115 153 0 76
0.545261 -0.141082 -0.219699 76 153 0
-0.303376 0.047833 -0.209656 127 0 127
-0.567290 0.141770 -0.079869 153 0 76
-0.518157 0.288242 -0.250637 76 0 153
0.382578 0.424318 -0.180465 0 127 127
0.120570 0.603204 -0.250637 76 0 153
-0.549906 -0.002988 -0.013136 153 0 76
-0.420128 -0.366739 0.260731 127 127 0
-0.279171 -0.387282 -0.212142 127 127 0
0.186526 0.047833 0.092378 127 0 127
-0.432517 0.047833 0.106126 127 0 127
-0.567290 -0.123639 -0.028183 153 0 76
0.126128 0.047833 -0.013002 127 0 127
0.545261 -0.630256 0.231462 76 153 0
-0.355160 -0.815153 0.049208 153 76 0
-0.549906 -0.489618 -0.175542 153 0 76
0.322018 0.249307 -0.250637 76 0 153
-0.172310 0.591153 0.260731 153 0 76
0.195040 -0.355788 -0.256431 76 0 153
0.233880 0.401140 0.019001 0 127 127
0.204023 0.315263 -0.256431 76 0 153
0.545261 0.610649 0.002686 76 153 0
-0.201215 0.757028 -0.273815 76 0 153
0.116914 0.113752 0.278115 153 76 0
-0.030448 0.566834 0.260731 153 0 76
0.338673 0.047833 0.121947 127 0 127
-0.105269 -0.815153 0.096067 153 76 0
-0.105771 -0.489291 0.260731 153 0 76
-0.317416 0.401140 0.009677 0 127 127
0.061995 0.424318 0.039090 0 127 127
-0.231620 -0.364104 0.197348 127 127 0
-0.261487 -0.471850 -0.250637 76 0 153
0.052286 0.047833 -0.092826 127 0 127
0.545261 -0.715847 -0.236942 76 153 0
-0.143240 -0.791975 -0.103760 153 76 0
0.357113 -0.815153 0.081970 153 76 0
-0.296239 0.047833 -0.046588 127 0 127
-0.549906 -0.444987 0.005334 153 0 76
-0.329111 0.738512 -0.203494 76 0 153
-0.216992 0.047833 0.071784 127 0 127
0.474898 0.071011 0.100457 127 0 127
-0.567290 0.602697 -0.236036 153 0 76
0.527877 0.519687 0.213924 76 153 0
-0.227470 -0.154705 -0.256431 76 0 153
-0.549906 0.602289 -0.124551 153 0 76
-0.371540 -0.427432 0.260731 153 0 76
0.545261 -0.287741 0.229287 76 153 0
-0.284147 -0.533215 0.260731 153 0 76
-0.567290 -0.524246 0.092187 153 0 76
-0.549906 0.148021 0.182515 153 0 76
0.492272 -0.388847 -0.256431 76 0 153
0.030394 -0.320274 -0.250637 76 0 153
-0.146733 -0.136471 0.278115 153 0 76
-0.507050 0.401140 -0.002590 0 127 127
0.190545 -0.615419 0.278115 0 0 255
0.527877 0.557466 -0.112594 76 153 0
0.097548 -0.766817 -0.250637 204 51 127
0.545261 -0.748158 -0.092103 76 153 0
-0.457613 0.071011 0.229223 127 0 127
0.527877 0.491284 0.080164 76 153 0
-0.498106 -0.387282 -0.183615 127 127 0
-0.549906 -0.215816 0.046194 153 0 76
-0.495013 -0.364104 0.228032 127 127 0
0.380928 -0.669465 0.260731 0 0 255
-0.523463 0.401140 0.127140 0 127 127
-0.128424 0.528515 -0.250637 76 0 153
-0.567290 0.272756 0.107359 153 0 76
0.527877 -0.619897 -0.009541 76 153 0
-0.077265 0.738512 -0.214894 76 0 153
0.492010 -0.791975 0.132940 153 76 0
0.545261 -0.416584 -0.065898 76 153 0
0.319686 -0.172420 -0.256431 76 0 153
0.240329 -0.815153 -0.002662 153 76 0
0.527877 -0.276238 -0.032579 76 153 0
-0.386435 0.401140 -0.092719 0 127 127
-0.567290 0.355597 -0.115093 153 0 76
0.327260 -0.364104 -0.100617 127 127 0
0.545261 0.657725 0.212279 76 153 0
-0.501895 -0.049430 0.278115 153 0 76
0.082854 0.761690 -0.001157 76 0 153
-0.304734 -0.206103 -0.250637 76 0 153
-0.369980 -0.115688 0.278115 153 0 76
-0.146083 0.112091 -0.250637 76 0 153
0.490745 0.761690 0.153377 76 0 153
0.272557 0.424318 0.071348 0 127 127
0.292126 0.401140 0.204805 0 127 127
-0.496274 0.699519 0.260731 153 0 76
0.258392 -0.364104 -0.094337 127 127 0
-0.269120 0.127654 0.278115 153 0 76
-0.501371 -0.783981 -0.250637 76 0 153
-0.249267 0.251752 -0.250637 76 0 153
-0.197708 0.047833 -0.140482 127 0 127
0.028378 0.401140 0.150036 0 127 127
-0.567290 0.448520 -0.005804 153 0 76
-0.240897 -0.387282 0.052329 127 127 0
0.262467 -0.777136 -0.273815 204 51 127
0.371322 -0.815153 -0.193196 153 76 0
0.545261 0.672871 -0.025979 76 153 0
-0.549906 0.434033 -0.103552 153 0 76
-0.503889 0.607406 0.278115 153 0 76
0.072129 -0.086541 0.278115 0 0 255
-0.147558 -0.815153 -0.268796 153 76 0
0.336616 -0.087185 0.260731 0 0 255
0.083102 0.761690 0.140524 76 0 153
0.543208 0.761690 -0.100547 76 153 0
-0.009566 -0.338957 0.261553 0 0 255
-0.066307 0.401140 0.084793 0 127 127
0.474486 0.577471 -0.256431 76 0 153
0.545261 0.105984 -0.092125 76 153 0
-0.165725 -0.024920 -0.256431 76 0 153
-0.020000 0.761690 0.095410 76 0 153
-0.399149 0.209877 -0.256431 76 0 153
0.036516 -0.235870 0.311234 255 0 0
-0.492805 0.738512 -0.103748 76 0 153
-0.529896 -0.073383 -0.250637 76 0 153
-0.512673 0.401140 -0.204500 0 127 127
0.168354 0.738512 -0.095195 76 0 153
-0.207099 -0.286282 -0.250637 76 0 153
-0.112105 -0.815153 0.028661 153 76 0
-0.150966 0.424318 -0.126924 0 127 127
-0.006943 -0.364104 0.190298 127 127 0
-0.364717 0.738512 -0.071215 76 0 153
0.170381 -0.544254 0.278115 0 0 255
0.483877 -0.044513 -0.273815 0 0 255
0.545261 -0.009912 -0.072677 76 153 0
-0.256537 -0.172121 0.278115 153 0 76
-0.564945 -0.238747 0.278115 153 0 76
0.370598 -0.423802 -0.256431 76 0 153
0.381276 0.424318 -0.083643 0 127 127
-0.549906 -0.446326 0.072839 153 0 76
-0.035015 -0.057810 -0.250637 0 0 255
0.333671 -0.791975 0.237009 153 76 0
-0.506728 -0.387282 -0.079722 127 127 0
0.543326 -0.500908 0.278115 0 0 255
-0.413984 -0.591906 0.278115 153 0 76
-0.567290 -0.112591 -0.207869 153 0 76
-0.549906 0.056503 0.021809 127 0 127
0.545261 -0.608317 -0.077633 76 153 0
0.360757 0.071011 -0.017937 127 0 127
-0.366428 0.086448 -0.250637 76 0 153
0.527877 -0.583938 -0.209125 76 153 0
-0.567290 -0.025292 -0.116258 153 0 76
-0.087727 0.401140 0.007460 0 127 127
0.125382 0.071011 0.212649 127 0 127
0.134991 -0.526299 -0.256431 76 0 153
0.545261 -0.612893 0.116652 76 153 0
-0.430373 0.401140 0.049020 0 127 127
-0.503324 -0.791975 0.113598 153 76 0
-0.284277 0.738512 -0.065816 76 0 153
0.410798 0.047833 0.027675 127 0 127
-0.387079 0.738512 0.127157 76 0 153
-0.291683 0.071011 0.222005 127 0 127
0.000971 -0.791975 0.098149 153 76 0
0.545261 -0.661266 -0.130907 76 153 0
-0.401831 -0.815153 -0.273748 153 76 0
-0.092444 -0.364104 -0.027720 127 127 0
-0.549906 0.508406 0.110818 153 0 76
-0.009470 0.047833 -0.207773 127 0 127
-0.229766 0.324674 0.278115 153 0 76
-0.217464 0.401140 0.223855 0 127 127
-0.280575 0.401140 0.085956 0 127 127
-0.567290 -0.614757 -0.209588 153 0 76
0.326171 0.729197 -0.273815 255 0 0
-0.549906 -0.070940 0.014947 153 0 76
0.489015 -0.387282 0.022847 127 127 0
-0.193871 -0.422296 0.278115 153 0 76
0.436964 0.083663 -0.256431 76 0 153
-0.088054 0.126022 0.260731 153 0 76
0.425055 -0.163937 -0.250637 76 0 153
0.155923 0.032730 -0.256431 0 0 255
-0.264755 0.626059 -0.250637 76 0 153
-0.523177 -0.387282 0.100434 127 127 0
-0.528361 -0.364104 -0.008003 127 127 0
0.527877 -0.186422 0.225954 76 153 0
0.545261 0.206203 0.102103 76 153 0
-0.054961 0.412985 0.308630 76 0 153
0.527877 -0.482985 -0.041949 76 153 0
0.344690 0.657042 -0.273815 76 0 153
0.192745 -0.139095 -0.256431 76 0 153
0.048912 -0.756805 0.260731 0 0 255
0.282723 -0.387282 0.236791 0 0 255
-0.008130 -0.438132 0.260731 0 0 255
0.239917 -0.611664 -0.256431 76 0 153
-0.567290 0.016739 -0.212315 153 0 76
0.449016 0.071011 0.238527 127 0 127
0.512306 0.291717 0.278115 153 76 0
0.520760 0.181526 -0.256431 76 153 0
-0.344521 0.162769 -0.250637 76 0 153
0.250476 -0.791975 0.193302 153 76 0
-0.484534 -0.490240 0.278115 153 0 76
-0.429727 0.071011 -0.040068 127 0 127
0.026872 0.424318 -0.041357 0 127 127
0.327009 0.071011 0.216582 127 0 127
-0.278727 0.031214 -0.270948 0 0 255
-0.219252 -0.815153 0.105210 153 76 0
-0.186951 0.401140 0.026619 0 127 127
-0.270788 0.401140 -0.044917 0 127 127
-0.500805 -0.791975 -0.165523 153 76 0
0.545261 0.111972 0.171075 76 153 0
-0.456025 -0.250131 0.260731 153 0 76
-0.494318 -0.549823 -0.256431 76 0 153
0.175561 -0.256890 0.278115 0 0 255
0.545261 -0.701752 0.015690 76 153 0
-0.549906 -0.752252 -0.219325 153 0 76
-0.325668 -0.254279 0.278115 153 0 76
-0.551395 -0.551195 0.278115 153 0 76
-0.321601 0.047833 0.033875 127 0 127
0.232025 -0.815153 0.070554 153 76 0
-0.549906 -0.153300 0.107313 153 0 76
0.545261 0.735166 0.038250 76 153 0
0.274540 -0.012921 -0.250637 76 0 153
-0.549906 0.350812 0.086868 153 0 76
0.368434 0.424318 0.000592 0 127 127
-0.567290 0.007243 0.211344 153 0 76
-0.245190 -0.815153 0.225995 153 76 0
-0.167631 0.712335 0.260731 153 0 76
-0.567290 0.542198 -0.022349 153 0 76
-0.567290 -0.269742 0.078819 153 0 76
0.270124 -0.748637 0.260731 0 0 255
-0.363479 -0.657304 0.278115 153 0 76
0.387079 0.738512 -0.080778 76 0 153
-0.191712 -0.815153 -0.181367 153 76 0
0.500352 0.424318 0.131098 0 127 127
-0.137744 0.761690 -0.094057 76 0 153
0.545261 -0.080071 -0.185140 76 153 0
0.126083 0.424318 -0.082926 0 127 127
0.527877 0.061173 -0.144001 76 153 0
-0.506607 0.761690 0.170211 76 0 153
0.527877 -0.203993 -0.209919 76 153 0
-0.567290 0.300527 -0.209807 153 0 76
-0.056718 0.234178 0.309907 76 0 153
-0.026364 0.738512 0.204783 76 0 153
0.543812 -0.395528 0.265946 0 0 255
0.218303 0.738512 0.147740 76 0 153
0.545261 -0.099651 -0.074258 76 153 0
-0.567290 0.159118 -0.216622 153 0 76
0.187157 0.086424 0.278115 153 76 0
-0.565841 0.730618 0.277983 153 0 76
0.356412 0.569514 -0.256431 76 0 153
-0.406049 0.604038 0.278115 153 0 76
-0.515098 0.071011 -0.115065 127 0 127
0.071025 -0.454787 -0.256431 76 0 153
0.385973 0.738512 0.139822 76 0 153
-0.563415 -0.173480 0.278115 153 0 76
0.437655 0.761690 -0.265976 76 0 153
-0.181962 -0.560636 0.278115 153 0 76
0.545261 -0.067379 0.037096 76 153 0
0.134264 0.424318 0.078506 0 127 127
-0.400070 0.401140 -0.227012 0 127 127
-0.567290 -0.089630 0.084714 153 0 76
0.279210 -0.296895 0.278115 0 0 255
-0.567290 0.495896 -0.215793 153 0 76
0.460767 -0.579250 0.260731 0 0 255
0.006499 0.478459 0.278115 153 76 0
0.487592 -0.364104 0.149833 127 127 0
-0.549906 -0.444305 0.211708 153 0 76
0.176257 0.761690 0.074891 76 0 153
0.531960 0.761690 -0.206560 76 153 0
0.410174 -0.511266 -0.250637 76 0 153
-0.567290 -0.192257 -0.233276 153 0 76
0.195239 -0.481550 -0.256431 76 0 153
-0.250541 -0.066631 0.260731 153 0 76
-0.500524 -0.144240 -0.256431 76 0 153
-0.150555 0.401140 -0.200216 0 127 127
-0.567290 0.072610 0.138921 153 0 76
0.503889 -0.155309 0.278115 0 0 255
0.508094 -0.791975 -0.217528 153 76 0
0.489853 -0.280691 0.260731 0 0 255
0.096864 0.759232 0.278115 153 76 0
-0.400609 -0.709533 0.278115 153 0 76
0.012591 0.684085 -0.250637 76 0 153
-0.549906 -0.653070 0.108771 153 0 76
-0.154781 0.586605 -0.256431 76 0 153
0.222304 0.047833 -0.214855 127 0 127
-0.567290 -0.763199 -0.097035 153 0 76
-0.016011 0.307106 0.260731 153 0 76
-0.516265 0.405292 0.278115 153 0 76
0.013962 0.424318 0.092156 0 127 127
-0.032533 -0.387282 0.037977 127 127 0
-0.177450 0.698000 -0.256431 255 0 0
-0.407922 0.071011 0.024315 127 0 127
0.405817 -0.737812 -0.256431 204 51 127
-0.438491 -0.013384 0.278115 153 0 76
-0.508526 -0.454615 -0.256431 76 0 153
-0.018548 0.047833 -0.021874 127 0 127
0.212177 -0.083838 0.260731 0 0 255
0.522919 0.169989 0.278115 153 76 0
0.545261 0.556050 -0.040743 76 153 0
0.197421 0.738512 0.207955 76 0 153
0.545261 0.003790 0.214648 76 153 0
-0.510397 0.188878 -0.256431 76 0 153
0.424446 -0.043979 0.260731 0 0 255
-0.567290 0.255308 -0.003715 153 0 76
0.255163 -0.364104 -0.224847 127 127 0
-0.387094 -0.387282 -0.147283 127 127 0
0.222515 0.071011 0.139890 127 0 127
0.356007 0.035311 0.278115 0 0 255
0.004417 -0.536631 -0.256431 76 0 153
0.495447 -0.488038 -0.256431 76 0 153
0.141067 0.401140 -0.203239 0 127 127
-0.184092 0.761690 -0.145586 76 0 153
0.527877 -0.117173 0.000278 76 153 0
-0.343840 -0.364104 0.142665 127 127 0
0.264587 -0.003226 0.260731 0 0 255
0.439549 -0.432276 0.260731 0 0 255
-0.352693 0.424318 -0.147895 0 127 127
-0.125213 -0.033875 0.278115 153 0 76
0.478398 0.344877 0.260731 153 76 0
-0.434677 -0.238085 -0.250637 76 0 153
-0.069975 0.401140 -0.094807 0 127 127
-0.024283 0.761690 -0.040609 76 0 153
0.413641 0.433092 0.260731 153 76 0
0.402007 -0.167574 0.260731 0 0 255
0.191519 -0.218496 -0.256431 76 0 153
-0.410104 -0.364104 -0.051430 127 127 0
0.545261 0.612008 0.122243 76 153 0
-0.007747 -0.815153 -0.241931 153 76 0
-0.011372 -0.815153 0.231767 153 76 0
-0.549906 0.344789 -0.003447 153 0 76
0.059509 0.286080 0.260731 153 76 0
-0.281814 -0.745954 0.278115 153 0 76
-0.399978 0.404587 0.253488 0 127 127
-0.429811 -0.815153 0.227828 153 76 0
-0.110744 -0.761927 -0.256431 204 51 127
0.536756 -0.815153 0.213041 76 153 0
0.034230 0.175750 0.309573 76 0 153
-0.459010 0.761690 0.104454 76 0 153
-0.271609 0.625165 0.278115 153 0 76
-0.438436 -0.387282 0.116662 127 127 0
0.462949 -0.387282 -0.114296 127 127 0
-0.190485 -0.387282 -0.207539 127 127 0
0.160573 0.608189 0.278115 153 76 0
-0.450265 -0.432373 -0.256431 76 0 153
0.102450 0.071011 -0.132752 127 0 127
-0.549906 -0.091223 0.208891 153 0 76
0.545261 -0.377073 0.057199 76 153 0
-0.094079 0.071011 -0.210848 127 0 127
-0.026298 0.114118 -0.256431 76 0 153
-0.063764 -0.791975 -0.140147 153 76 0
0.506949 0.071011 -0.023033 127 0 127
0.404109 0.761690 0.244016 76 0 153
0.481668 0.738512 -0.043307 76 0 153
-0.549906 -0.333321 0.201619 153 0 76
0.545261 -0.114055 0.189283 76 153 0
0.445753 0.071011 0.172286 127 0 127
-0.141644 -0.353690 0.278115 153 0 76
0.218972 -0.797560 0.278115 0 0 255
-0.021533 0.444442 -0.256431 76 0 153
-0.116199 -0.104453 -0.256431 76 0 153
-0.057511 -0.285906 0.260731 153 0 76
-0.567290 0.703192 0.116847 153 0 76
-0.567290 0.702320 -0.143968 153 0 76
-0.125599 0.198890 -0.256431 76 0 153
-0.106288 0.071011 -0.026135 127 0 127
-0.467093 -0.660852 -0.256431 76 0 153
0.241986 0.622621 -0.268150 255 0 0
0.363768 0.738512 -0.020118 76 0 153
-0.444842 0.424318 -0.099134 0 127 127
0.153727 -0.364104 -0.144712 127 127 0
-0.282244 -0.364104 0.240481 127 127 0
-0.338456 0.025358 -0.256431 76 0 153
-0.540795 0.761690 -0.071079 76 0 153
-0.182520 -0.191433 0.278115 153 0 76
-0.287813 0.189736 0.260731 153 0 76
-0.252474 0.424318 -0.170099 0 127 127
0.101361 -0.375019 -0.256431 127 127 0
