0.011420 0.458706 0.291083 0.500000 0.500000 0.000000
0.016484 0.451060 0.212234 0.300000 0.000000 0.600000
0.063077 0.361855 0.421997 0.500000 0.500000 0.000000
0.171654 0.349096 0.314767 0.500000 0.500000 0.000000
-0.004492 -0.921500 -0.108284 0.600000 0.000000 0.300000
-0.123529 -0.900349 -0.099739 0.600000 0.000000 0.300000
0.030170 -0.054157 -0.425456 0.800000 0.200000 0.500000
-0.082352 0.423597 0.366765 0.500000 0.500000 0.000000
0.064460 0.315940 0.246018 0.000000 1.000000 0.000000
-0.163411 0.229358 0.164155 0.500000 0.500000 0.000000
-0.043760 0.540629 0.146159 0.000000 1.000000 0.000000
-0.021128 0.590613 0.142259 0.000000 0.000000 1.000000
-0.015855 0.280848 0.177837 0.000000 1.000000 0.000000
-0.007137 0.176326 -0.451183 0.800000 0.200000 0.500000
-0.007548 -0.690993 -0.213948 0.600000 0.300000 0.000000
-0.050144 0.392386 0.106209 0.300000 0.000000 0.600000
0.087094 0.357088 0.118808 0.500000 0.500000 0.000000
-0.032477 0.534767 0.103412 0.000000 1.000000 0.000000
-0.014348 -0.524815 -0.234489 0.600000 0.000000 0.300000
0.071401 0.478686 0.223829 0.500000 0.500000 0.000000
-0.182623 0.353889 0.290261 0.500000 0.500000 0.000000
0.038355 0.391572 0.144682 0.300000 0.000000 0.600000
-0.054740 -0.921500 -0.334008 0.600000 0.000000 0.300000
0.009694 0.562580 0.183982 0.000000 0.000000 1.000000
0.141722 -0.900349 -0.148125 0.600000 0.000000 0.300000
0.061596 -0.450380 -0.227162 0.800000 0.200000 0.500000
-0.081686 0.413932 0.111853 0.500000 0.500000 0.000000
0.035902 0.444289 0.352975 0.500000 0.500000 0.000000
0.043508 -0.900349 -0.086386 0.600000 0.000000 0.300000
0.171244 -0.908460 -0.191493 0.600000 0.000000 0.300000
0.001124 0.018947 -0.501581 0.600000 0.000000 0.300000
0.026426 -0.519543 -0.208015 0.500000 0.500000 0.000000
-0.063043 0.435911 0.228619 0.300000 0.000000 0.600000
0.103182 0.527747 0.104823 0.000000 1.000000 0.000000
-0.167864 -0.921500 -0.302438 0.600000 0.000000 0.300000
0.050010 0.550346 0.162792 0.000000 0.000000 1.000000
0.050795 0.190289 0.093010 0.500000 0.500000 0.000000
-0.096159 0.474184 0.053231 0.500000 0.000000 0.500000
-0.077758 0.323970 0.094156 0.500000 0.500000 0.000000
0.021195 0.251069 0.067595 0.500000 0.500000 0.000000
0.120496 0.306561 0.114265 0.500000 0.500000 0.000000
0.003945 0.348290 -0.189012 0.800000 0.200000 0.500000
0.001092 -0.687765 -0.195794 0.600000 0.300000 0.000000
-0.043758 0.417184 0.121835 0.500000 0.500000 0.000000
0.110391 0.250700 0.097616 0.500000 0.500000 0.000000
-0.079141 0.518995 0.104121 0.000000 1.000000 0.000000
-0.180475 0.309352 0.177932 0.500000 0.500000 0.000000
0.033427 -0.178510 -0.341603 0.800000 0.200000 0.500000
-0.034751 -0.019357 -0.425343 0.000000 0.000000 1.000000
0.126625 0.352857 0.389858 0.500000 0.500000 0.000000
0.005345 0.106439 -0.545922 0.600000 0.000000 0.300000
0.185888 0.218633 0.214208 0.500000 0.500000 0.000000
0.000038 -0.237953 -0.372067 0.600000 0.000000 0.300000
0.021928 0.536195 0.148484 0.000000 1.000000 0.000000
0.026441 -0.593255 -0.213821 0.500000 0.500000 0.000000
-0.038978 0.550819 0.133740 0.000000 1.000000 0.000000
-0.002604 -0.556501 -0.244276 0.600000 0.300000 0.000000
0.004240 -0.496534 -0.196019 0.500000 0.000000 0.500000
-0.057767 0.375075 0.123248 0.300000 0.000000 0.600000
0.054898 -0.302244 -0.294000 0.800000 0.200000 0.500000
-0.132128 0.177770 0.142524 0.500000 0.500000 0.000000
-0.161088 -0.900349 -0.230922 0.600000 0.000000 0.300000
-0.101762 0.413298 0.152069 0.500000 0.500000 0.000000
0.170921 0.311215 0.173203 0.500000 0.500000 0.000000
0.021621 0.529275 0.212883 0.300000 0.000000 0.600000
0.066892 0.490727 0.200143 0.300000 0.000000 0.600000
-0.099854 0.545614 0.142572 0.000000 1.000000 0.000000
0.065344 0.386103 0.228796 0.000000 1.000000 0.000000
0.154815 -0.900349 -0.077844 0.600000 0.000000 0.300000
-0.086162 0.206759 0.095124 0.500000 0.500000 0.000000
0.156815 -0.900349 -0.346281 0.600000 0.000000 0.300000
-0.098698 0.363811 0.405139 0.500000 0.500000 0.000000
-0.114759 -0.921500 -0.174544 0.600000 0.000000 0.300000
0.061807 0.389972 0.213809 0.000000 1.000000 0.000000
0.058243 -0.500185 -0.204607 0.800000 0.200000 0.500000
-0.007169 0.294712 -0.270359 0.800000 0.200000 0.500000
0.045349 0.434015 0.200378 0.300000 0.000000 0.600000
-0.066871 0.245518 0.074834 0.500000 0.500000 0.000000
0.150592 -0.921500 -0.289626 0.600000 0.000000 0.300000
0.022830 0.561177 0.037077 0.000000 0.000000 1.000000
0.103183 0.523343 0.131469 0.000000 1.000000 0.000000
-0.098182 0.494816 0.050093 0.500000 0.000000 0.500000
0.150130 -0.921500 -0.142248 0.600000 0.000000 0.300000
0.031611 -0.119514 -0.395980 0.800000 0.200000 0.500000
-0.110119 -0.900349 -0.358932 0.600000 0.000000 0.300000
0.064090 0.305129 0.199434 0.000000 1.000000 0.000000
-0.043555 -0.359238 -0.260144 0.000000 0.000000 1.000000
-0.064668 0.443568 0.167533 0.500000 0.500000 0.000000
0.054075 -0.521156 -0.182439 0.800000 0.200000 0.500000
-0.045567 -0.921500 -0.292347 0.600000 0.000000 0.300000
-0.045991 0.343853 0.280434 0.000000 1.000000 0.000000
-0.012013 -0.900349 -0.253455 0.600000 0.000000 0.300000
-0.063944 0.365454 0.257888 0.000000 1.000000 0.000000
-0.002161 0.040678 -0.526183 1.000000 0.000000 0.000000
-0.088213 0.511822 0.096066 0.000000 0.000000 1.000000
0.143690 0.253526 0.124537 0.500000 0.500000 0.000000
-0.016016 -0.838624 -0.219503 0.600000 0.000000 0.300000
-0.049793 -0.577162 -0.202540 0.300000 0.000000 0.600000
-0.100037 -0.921500 -0.076253 0.600000 0.000000 0.300000
0.020463 0.449868 0.178445 0.500000 0.500000 0.000000
-0.069075 0.458073 0.069677 0.500000 0.500000 0.000000
0.040628 -0.327183 -0.302324 0.800000 0.200000 0.500000
-0.039076 -0.203709 -0.330246 0.000000 0.000000 1.000000
0.018829 -0.921500 -0.247676 0.600000 0.000000 0.300000
-0.009934 -0.169390 -0.421885 0.600000 0.000000 0.300000
0.081672 0.540259 0.165283 0.000000 0.000000 1.000000
0.067497 -0.590962 -0.194982 0.600000 0.000000 0.300000
-0.065786 0.349442 0.170525 0.000000 1.000000 0.000000
0.043548 0.323077 0.276401 0.000000 1.000000 0.000000
0.043034 -0.500215 -0.192254 0.800000 0.200000 0.500000
-0.066082 -0.656369 -0.204811 0.300000 0.000000 0.600000
0.017261 0.289811 0.267709 0.000000 1.000000 0.000000
-0.127728 -0.900349 -0.348559 0.600000 0.000000 0.300000
-0.089689 0.547321 0.140020 0.000000 1.000000 0.000000
0.016849 0.618405 0.122607 0.000000 0.000000 1.000000
-0.012439 -0.900349 -0.336476 0.600000 0.000000 0.300000
0.083944 0.455906 0.183472 0.300000 0.000000 0.600000
-0.058787 -0.500065 -0.207940 0.000000 0.000000 1.000000
0.041472 0.444459 0.074091 0.300000 0.000000 0.600000
-0.152379 0.265223 0.135927 0.500000 0.500000 0.000000
-0.040966 -0.365402 -0.280974 0.000000 0.000000 1.000000
-0.085822 0.476977 0.115362 0.300000 0.000000 0.600000
-0.078801 0.449602 -0.006017 0.500000 0.000000 0.500000
0.027486 0.445966 0.246035 0.300000 0.000000 0.600000
0.170480 -0.902144 -0.366197 0.600000 0.000000 0.300000
0.095451 0.436397 0.285676 0.500000 0.500000 0.000000
0.043004 0.453933 0.298559 0.500000 0.500000 0.000000
0.051220 -0.410985 -0.237946 0.000000 0.500000 0.500000
0.053592 -0.551650 -0.203221 0.600000 0.000000 0.300000
-0.005179 0.226277 -0.389870 0.800000 0.200000 0.500000
0.037807 -0.748644 -0.222127 0.500000 0.500000 0.000000
-0.055105 0.391123 0.096719 0.500000 0.500000 0.000000
0.016776 -0.031897 -0.414966 0.800000 0.200000 0.500000
0.006229 0.296604 -0.269814 0.800000 0.200000 0.500000
0.078170 0.400606 0.135506 0.300000 0.000000 0.600000
-0.130753 0.372901 0.370052 0.500000 0.500000 0.000000
-0.030893 0.449572 0.252281 0.300000 0.000000 0.600000
-0.024238 0.371946 0.117829 0.300000 0.000000 0.600000
-0.035126 -0.921500 -0.090864 0.600000 0.000000 0.300000
-0.002121 -0.348025 -0.316746 0.600000 0.000000 0.300000
-0.074212 -0.921500 -0.108576 0.600000 0.000000 0.300000
-0.044110 0.401761 0.247858 0.000000 1.000000 0.000000
-0.070421 -0.921500 -0.340385 0.600000 0.000000 0.300000
0.012256 0.192494 0.085344 0.500000 0.500000 0.000000
-0.072751 -0.921500 -0.133668 0.600000 0.000000 0.300000
0.107511 -0.921500 -0.298236 0.600000 0.000000 0.300000
-0.001420 -0.710496 -0.201942 0.500000 0.500000 0.000000
-0.053219 0.233248 0.075151 0.500000 0.500000 0.000000
-0.160560 0.343892 0.355926 0.500000 0.500000 0.000000
-0.018149 -0.824280 -0.196933 0.600000 0.000000 0.300000
-0.020752 -0.712229 -0.212163 0.500000 0.500000 0.000000
-0.018673 -0.900349 -0.171179 0.600000 0.000000 0.300000
-0.085254 0.390410 0.394549 0.500000 0.500000 0.000000
-0.124442 0.262192 0.108174 0.500000 0.500000 0.000000
0.019477 -0.006599 -0.419120 0.800000 0.200000 0.500000
0.163596 0.346587 0.337937 0.500000 0.500000 0.000000
-0.095336 0.432066 0.130295 0.500000 0.500000 0.000000
-0.190863 0.337719 0.259855 0.500000 0.500000 0.000000
-0.048638 0.282859 0.070970 0.500000 0.500000 0.000000
-0.007196 0.407146 -0.073278 0.800000 0.200000 0.500000
-0.040155 -0.921500 -0.323798 0.600000 0.000000 0.300000
-0.040041 0.432509 0.222727 0.300000 0.000000 0.600000
-0.037911 0.284674 0.071965 0.500000 0.500000 0.000000
-0.026320 0.449910 0.127539 0.000000 1.000000 0.000000
-0.005193 0.423913 0.236614 0.000000 1.000000 0.000000
0.041605 0.449676 0.329744 0.500000 0.500000 0.000000
0.050926 0.428919 0.142160 0.500000 0.500000 0.000000
-0.058784 -0.484720 -0.202277 0.000000 0.000000 1.000000
0.009739 0.553896 0.166260 0.000000 0.000000 1.000000
0.102184 -0.901738 -0.377252 0.600000 0.000000 0.300000
0.121814 -0.921500 -0.087087 0.600000 0.000000 0.300000
-0.127521 -0.921500 -0.126846 0.600000 0.000000 0.300000
0.033792 0.458362 0.281481 0.500000 0.500000 0.000000
0.040814 -0.563780 -0.219918 0.500000 0.500000 0.000000
0.041172 0.483485 0.246605 0.500000 0.500000 0.000000
-0.000592 0.424356 0.058319 0.500000 0.500000 0.000000
-0.026566 -0.721330 -0.219738 0.500000 0.500000 0.000000
0.007651 -0.266833 -0.357592 0.600000 0.000000 0.300000
0.014374 -0.714640 -0.213213 0.500000 0.500000 0.000000
0.020435 -0.081012 -0.389174 0.800000 0.200000 0.500000
-0.025645 0.378187 0.128638 0.300000 0.000000 0.600000
-0.004363 0.267585 0.221206 0.000000 1.000000 0.000000
0.060904 0.459221 0.230567 0.300000 0.000000 0.600000
-0.171656 -0.905738 -0.152610 0.600000 0.000000 0.300000
0.092758 0.517246 0.145776 0.000000 0.000000 1.000000
0.043810 0.384096 0.420992 0.500000 0.500000 0.000000
-0.133422 -0.900349 -0.289752 0.600000 0.000000 0.300000
0.075945 0.444949 0.283938 0.500000 0.500000 0.000000
-0.010667 0.570331 0.197407 0.000000 0.000000 1.000000
-0.086189 0.413318 0.377704 0.500000 0.500000 0.000000
-0.024437 0.044166 -0.441971 0.000000 0.000000 1.000000
0.057860 0.473292 0.239025 0.500000 0.500000 0.000000
0.196043 0.266136 0.280218 0.500000 0.500000 0.000000
-0.087572 0.453468 0.177719 0.300000 0.000000 0.600000
-0.182213 0.227858 0.197125 0.500000 0.500000 0.000000
-0.122075 0.273580 0.102606 0.500000 0.500000 0.000000
-0.109722 -0.901400 -0.035900 0.600000 0.000000 0.300000
0.014019 -0.686097 -0.211240 0.600000 0.300000 0.000000
-0.036340 0.281672 0.189616 0.000000 1.000000 0.000000
0.094915 0.386149 0.134769 0.500000 0.500000 0.000000
0.033539 -0.485283 -0.215869 0.500000 0.500000 0.000000
0.097256 0.484106 0.077986 0.500000 0.000000 0.500000
-0.006670 -0.530028 -0.240454 0.600000 0.000000 0.300000
-0.194403 0.318505 0.278971 0.500000 0.500000 0.000000
0.003532 0.386702 -0.125774 0.800000 0.200000 0.500000
0.064980 -0.900349 -0.050998 0.600000 0.000000 0.300000
0.008624 -0.207455 -0.402187 0.600000 0.000000 0.300000
-0.030437 -0.921500 -0.115894 0.600000 0.000000 0.300000
-0.027660 -0.921500 -0.145981 0.600000 0.000000 0.300000
-0.040973 -0.622578 -0.218355 0.500000 0.500000 0.000000
-0.002265 0.451801 -0.013918 0.600000 0.000000 0.300000
-0.078417 -0.921500 -0.191659 0.600000 0.000000 0.300000
0.097999 0.418740 0.147849 0.500000 0.500000 0.000000
0.011665 -0.695568 -0.206753 0.600000 0.300000 0.000000
0.006210 0.371957 -0.143904 0.800000 0.200000 0.500000
-0.143996 0.398180 0.312965 0.500000 0.500000 0.000000
-0.026572 -0.690001 -0.201512 0.500000 0.500000 0.000000
-0.099726 0.551342 0.121130 0.000000 1.000000 0.000000
-0.069370 0.530413 0.102547 0.000000 1.000000 0.000000
0.027229 -0.425741 -0.247269 0.000000 0.500000 0.500000
-0.062134 -0.464160 -0.211176 0.000000 0.000000 1.000000
-0.022039 0.471122 0.249408 0.300000 0.000000 0.600000
-0.014229 -0.791128 -0.191153 0.600000 0.000000 0.300000
0.025065 0.403184 0.097587 0.500000 0.500000 0.000000
0.086598 0.471889 0.142983 0.300000 0.000000 0.600000
0.097444 0.290732 0.094694 0.500000 0.500000 0.000000
0.139304 -0.900349 -0.340832 0.600000 0.000000 0.300000
-0.007577 0.557645 0.208856 0.000000 0.000000 1.000000
-0.111872 0.425378 0.262349 0.500000 0.500000 0.000000
-0.024640 0.434994 0.055628 0.500000 0.500000 0.000000
-0.108557 -0.921500 -0.112701 0.600000 0.000000 0.300000
0.003142 -0.921500 -0.087192 0.600000 0.000000 0.300000
-0.047335 -0.900349 -0.318108 0.600000 0.000000 0.300000
-0.119585 -0.921500 -0.325770 0.600000 0.000000 0.300000
0.022125 0.380383 0.426431 0.500000 0.500000 0.000000
-0.138179 0.375375 0.361075 0.500000 0.500000 0.000000
0.011780 0.436659 -0.028362 0.600000 0.000000 0.300000
-0.028142 0.464075 0.176004 0.000000 1.000000 0.000000
-0.089327 -0.900349 -0.092508 0.600000 0.000000 0.300000
-0.002821 0.155623 -0.530492 1.000000 0.000000 0.000000
-0.060312 -0.921500 -0.294297 0.600000 0.000000 0.300000
-0.179928 0.289197 0.173141 0.500000 0.500000 0.000000
0.088813 0.217436 0.097036 0.500000 0.500000 0.000000
-0.022710 0.551339 0.121036 0.000000 1.000000 0.000000
0.034647 0.551769 0.129038 0.000000 1.000000 0.000000
0.141426 -0.900349 -0.227144 0.600000 0.000000 0.300000
0.114750 0.421774 0.256817 0.500000 0.500000 0.000000
-0.001745 -0.292825 -0.344489 0.600000 0.000000 0.300000
0.033932 -0.269608 -0.310294 0.800000 0.200000 0.500000
0.005560 -0.921500 -0.115039 0.600000 0.000000 0.300000
0.008587 -0.354193 -0.329313 0.600000 0.000000 0.300000
0.051057 -0.921500 -0.159997 0.600000 0.000000 0.300000
-0.038606 -0.209339 -0.355476 0.000000 0.000000 1.000000
0.109357 0.342405 0.123134 0.500000 0.500000 0.000000
0.026521 0.383716 0.277756 0.000000 1.000000 0.000000
-0.047101 -0.188396 -0.346479 0.000000 0.000000 1.000000
-0.042761 -0.900349 -0.099331 0.600000 0.000000 0.300000
-0.061611 0.436412 0.155140 0.500000 0.500000 0.000000
-0.062120 -0.412207 -0.237682 0.000000 0.000000 1.000000
-0.023377 -0.900349 -0.079661 0.600000 0.000000 0.300000
0.019233 0.462947 0.113511 0.000000 1.000000 0.000000
-0.186318 0.274810 0.187039 0.500000 0.500000 0.000000
-0.002850 -0.135593 -0.452016 0.600000 0.000000 0.300000
0.129174 -0.900349 -0.044838 0.600000 0.000000 0.300000
0.190721 0.306268 0.266637 0.500000 0.500000 0.000000
-0.026596 -0.574669 -0.213876 0.500000 0.500000 0.000000
0.159432 -0.921500 -0.156035 0.600000 0.000000 0.300000
0.006224 0.321660 -0.221480 0.800000 0.200000 0.500000
0.117361 -0.921500 -0.061701 0.600000 0.000000 0.300000
-0.061188 0.412627 0.088914 0.500000 0.500000 0.000000
-0.042299 0.179038 0.092899 0.500000 0.500000 0.000000
0.157253 0.350438 0.177949 0.500000 0.500000 0.000000
-0.157273 0.393121 0.299016 0.500000 0.500000 0.000000
0.001641 0.430707 0.069477 0.300000 0.000000 0.600000
-0.097555 0.470256 0.114433 0.500000 0.500000 0.000000
-0.043557 -0.429093 -0.229239 0.000000 0.000000 1.000000
-0.084065 0.470435 0.182297 0.300000 0.000000 0.600000
-0.190077 0.257213 0.202094 0.500000 0.500000 0.000000
-0.050377 0.439758 0.359221 0.500000 0.500000 0.000000
0.115739 -0.900349 -0.239367 0.600000 0.000000 0.300000
0.036429 -0.630340 -0.222127 0.500000 0.500000 0.000000
-0.056397 -0.317400 -0.290865 0.000000 0.000000 1.000000
-0.049490 -0.917830 -0.034958 0.600000 0.000000 0.300000
0.016912 -0.902658 -0.377859 0.600000 0.000000 0.300000
0.006353 0.145912 -0.499405 0.800000 0.200000 0.500000
0.019518 -0.752326 -0.212861 0.600000 0.000000 0.300000
0.145738 -0.900349 -0.184657 0.600000 0.000000 0.300000
-0.086938 -0.900349 -0.214416 0.600000 0.000000 0.300000
-0.011788 -0.425749 -0.244635 0.000000 0.500000 0.500000
-0.042672 0.381293 0.134016 0.300000 0.000000 0.600000
-0.098133 0.486310 0.069155 0.500000 0.000000 0.500000
-0.005936 0.505362 0.130630 0.000000 1.000000 0.000000
0.055238 -0.311315 -0.300744 0.800000 0.200000 0.500000
-0.040912 -0.240721 -0.313563 0.000000 0.000000 1.000000
-0.056168 -0.629313 -0.208638 0.300000 0.000000 0.600000
-0.057682 0.485220 0.051078 0.000000 0.000000 1.000000
-0.009926 -0.136854 -0.433837 0.600000 0.000000 0.300000
0.131024 -0.921500 -0.305021 0.600000 0.000000 0.300000
-0.126362 0.327630 0.402465 0.500000 0.500000 0.000000
0.049073 -0.227035 -0.341086 0.800000 0.200000 0.500000
0.052585 0.343036 0.160266 0.000000 1.000000 0.000000
-0.062535 0.461290 0.062015 0.500000 0.500000 0.000000
0.087279 0.458479 0.014130 0.500000 0.000000 0.500000
-0.104477 0.535723 0.133637 0.000000 1.000000 0.000000
-0.039698 -0.409469 -0.249766 0.000000 0.500000 0.500000
0.050466 -0.628607 -0.184594 0.600000 0.000000 0.300000
0.072918 0.394481 0.113571 0.500000 0.500000 0.000000
-0.092050 0.427402 0.180701 0.300000 0.000000 0.600000
0.004202 0.275647 -0.308604 0.800000 0.200000 0.500000
0.161384 -0.900349 -0.321678 0.600000 0.000000 0.300000
-0.161015 -0.921500 -0.228004 0.600000 0.000000 0.300000
0.144450 0.318433 0.136188 0.500000 0.500000 0.000000
0.124811 -0.919196 -0.034958 0.600000 0.000000 0.300000
0.053023 0.508805 0.223594 0.500000 0.500000 0.000000
0.003941 0.276270 0.182073 0.000000 1.000000 0.000000
-0.041718 0.388618 0.090480 0.500000 0.500000 0.000000
0.009955 -0.583049 -0.236957 0.600000 0.300000 0.000000
-0.020406 -0.892845 -0.202700 0.600000 0.000000 0.300000
-0.011215 -0.782454 -0.222127 0.500000 0.500000 0.000000
0.052055 -0.900349 -0.169359 0.600000 0.000000 0.300000
0.085090 0.204282 0.101322 0.500000 0.500000 0.000000
0.103805 0.422744 0.196987 0.500000 0.500000 0.000000
0.050333 0.560938 0.064134 0.000000 0.000000 1.000000
0.038923 0.306567 0.272068 0.000000 1.000000 0.000000
-0.006775 0.193121 -0.443673 0.800000 0.200000 0.500000
-0.015505 -0.709708 -0.203031 0.500000 0.500000 0.000000
-0.094906 -0.900349 -0.077054 0.600000 0.000000 0.300000
0.070748 -0.900349 -0.339449 0.600000 0.000000 0.300000
-0.183951 0.344595 0.238231 0.500000 0.500000 0.000000
0.012815 -0.619650 -0.220375 0.600000 0.300000 0.000000
0.042109 0.547955 0.058294 0.000000 0.000000 1.000000
-0.064836 -0.605372 -0.201641 0.300000 0.000000 0.600000
0.034936 -0.690782 -0.222127 0.500000 0.500000 0.000000
-0.134602 0.411011 0.281242 0.500000 0.500000 0.000000
-0.033737 0.420881 0.128239 0.500000 0.500000 0.000000
0.135485 -0.911626 -0.034958 0.600000 0.000000 0.300000
0.086936 -0.921500 -0.071070 0.600000 0.000000 0.300000
0.005499 0.599960 0.140304 0.000000 0.000000 1.000000
-0.146802 -0.921500 -0.242698 0.600000 0.000000 0.300000
0.134114 0.235478 0.119394 0.500000 0.500000 0.000000
-0.095357 0.338777 0.112313 0.500000 0.500000 0.000000
0.185413 0.328277 0.302898 0.500000 0.500000 0.000000
-0.004437 0.626459 0.099265 0.000000 0.000000 1.000000
0.000350 0.591397 0.006472 0.600000 0.000000 0.300000
-0.020165 0.269920 0.223086 0.000000 1.000000 0.000000
-0.044929 -0.715655 -0.213539 0.500000 0.500000 0.000000
0.101981 0.243671 0.096472 0.500000 0.500000 0.000000
-0.009913 -0.090183 -0.470950 0.600000 0.000000 0.300000
0.062612 0.302842 0.225980 0.000000 1.000000 0.000000
-0.052943 0.368924 0.268706 0.000000 1.000000 0.000000
0.008649 -0.109489 -0.455946 0.600000 0.000000 0.300000
-0.176607 0.350719 0.209168 0.500000 0.500000 0.000000
-0.051896 -0.460494 -0.239369 0.000000 0.000000 1.000000
-0.018914 -0.056209 -0.406915 0.000000 0.000000 1.000000
0.170780 -0.919968 -0.255087 0.600000 0.000000 0.300000
0.016595 -0.900059 -0.221108 0.600000 0.000000 0.300000
0.083267 0.484544 0.086002 0.000000 0.000000 1.000000
-0.006292 -0.775560 -0.186547 0.600000 0.000000 0.300000
0.000732 0.039241 -0.511815 0.600000 0.000000 0.300000
-0.157883 0.378781 0.328813 0.500000 0.500000 0.000000
-0.080215 0.525435 0.149446 0.000000 1.000000 0.000000
0.048654 0.408468 0.159543 0.300000 0.000000 0.600000
-0.009909 -0.071031 -0.474415 0.600000 0.000000 0.300000
-0.000801 0.585295 -0.002017 0.600000 0.000000 0.300000
0.103179 0.541163 0.121780 0.000000 1.000000 0.000000
0.155963 -0.900349 -0.092030 0.600000 0.000000 0.300000
0.009995 -0.758729 -0.222127 0.500000 0.500000 0.000000
0.178952 0.342302 0.219529 0.500000 0.500000 0.000000
0.051889 0.560264 0.189101 0.000000 0.000000 1.000000
-0.088195 0.175832 0.117935 0.500000 0.500000 0.000000
-0.051372 -0.507936 -0.209249 0.500000 0.000000 0.500000
0.026733 0.366405 0.090867 0.500000 0.500000 0.000000
-0.053797 0.444619 0.063884 0.500000 0.500000 0.000000
0.026727 -0.921500 -0.233530 0.600000 0.000000 0.300000
-0.146669 0.318220 0.384511 0.500000 0.500000 0.000000
0.041111 -0.367918 -0.263706 0.800000 0.200000 0.500000
-0.060567 -0.648278 -0.188253 0.300000 0.000000 0.600000
-0.026605 -0.531346 -0.215682 0.500000 0.500000 0.000000
-0.167344 0.317723 0.167506 0.500000 0.500000 0.000000
0.033258 0.461688 0.253600 0.300000 0.000000 0.600000
0.067966 -0.900349 -0.320837 0.600000 0.000000 0.300000
0.086259 0.417318 0.125965 0.500000 0.500000 0.000000
-0.031442 -0.417663 -0.237049 0.000000 0.500000 0.500000
-0.023284 0.395381 0.142823 0.000000 1.000000 0.000000
-0.155728 -0.900349 -0.119074 0.600000 0.000000 0.300000
-0.065144 0.416903 0.386162 0.500000 0.500000 0.000000
-0.000530 -0.343659 -0.347288 0.600000 0.000000 0.300000
0.006215 0.358746 -0.155350 0.800000 0.200000 0.500000
-0.107706 0.400547 0.164860 0.500000 0.500000 0.000000
0.049599 0.408815 0.211279 0.000000 1.000000 0.000000
0.026437 -0.572583 -0.196597 0.500000 0.500000 0.000000
-0.002379 0.565115 0.152372 0.000000 0.000000 1.000000
0.124731 0.411607 0.242523 0.500000 0.500000 0.000000
-0.022447 0.457616 0.199419 0.300000 0.000000 0.600000
0.028337 -0.622292 -0.222127 0.500000 0.500000 0.000000
0.098276 0.451941 0.147000 0.500000 0.500000 0.000000
0.098308 -0.921500 -0.202716 0.600000 0.000000 0.300000
-0.044868 -0.553753 -0.192986 0.300000 0.000000 0.600000
0.011328 0.626253 0.109097 0.000000 0.000000 1.000000
-0.009901 -0.564124 -0.233113 0.600000 0.300000 0.000000
0.040811 -0.550382 -0.204178 0.500000 0.500000 0.000000
0.029906 0.391901 0.413632 0.500000 0.500000 0.000000
0.011983 -0.921500 -0.297760 0.600000 0.000000 0.300000
-0.032982 -0.252539 -0.325095 0.000000 0.000000 1.000000
0.040854 -0.763138 -0.206277 0.500000 0.500000 0.000000
0.061242 0.400359 0.167041 0.300000 0.000000 0.600000
-0.004595 0.266199 -0.324148 0.800000 0.200000 0.500000
0.015890 0.587014 0.145547 0.000000 0.000000 1.000000
0.068666 0.414415 0.191386 0.300000 0.000000 0.600000
-0.108305 -0.911683 -0.377859 0.600000 0.000000 0.300000
-0.050784 -0.393269 -0.272561 0.000000 0.000000 1.000000
-0.000748 0.402658 0.129847 0.300000 0.000000 0.600000
-0.082271 0.240848 0.085276 0.500000 0.500000 0.000000
0.006250 0.221880 -0.383103 0.800000 0.200000 0.500000
-0.133404 -0.900349 -0.038106 0.600000 0.000000 0.300000
0.081962 0.351078 0.423875 0.500000 0.500000 0.000000
0.154580 0.385582 0.240907 0.500000 0.500000 0.000000
0.156802 -0.921500 -0.115441 0.600000 0.000000 0.300000
0.009460 0.474867 0.261512 0.500000 0.500000 0.000000
0.045039 0.600490 0.067397 0.000000 0.000000 1.000000
-0.187604 0.297876 0.189068 0.500000 0.500000 0.000000
0.111713 -0.900349 -0.159208 0.600000 0.000000 0.300000
-0.101377 -0.921500 -0.319738 0.600000 0.000000 0.300000
-0.004783 0.555482 0.157934 0.000000 0.000000 1.000000
-0.000672 -0.452673 -0.264152 0.600000 0.000000 0.300000
0.034179 0.276093 0.218846 0.000000 1.000000 0.000000
-0.078830 0.422740 0.127115 0.300000 0.000000 0.600000
-0.004097 0.462602 0.107491 0.000000 1.000000 0.000000
0.038826 0.520238 0.225371 0.500000 0.500000 0.000000
-0.172527 0.324435 0.339374 0.500000 0.500000 0.000000
-0.128916 -0.921500 -0.345460 0.600000 0.000000 0.300000
-0.014269 0.008610 -0.433685 0.000000 0.000000 1.000000
0.018248 -0.921500 -0.186999 0.600000 0.000000 0.300000
0.099685 0.420393 0.342927 0.500000 0.500000 0.000000
-0.103044 0.380483 0.139089 0.500000 0.500000 0.000000
0.058242 -0.525318 -0.204521 0.800000 0.200000 0.500000
0.061928 0.452562 0.183112 0.500000 0.500000 0.000000
-0.188854 0.330929 0.279304 0.500000 0.500000 0.000000
0.006215 0.353650 -0.170337 0.800000 0.200000 0.500000
-0.020623 0.454371 0.307026 0.500000 0.500000 0.000000
-0.068185 0.284281 0.077225 0.500000 0.500000 0.000000
-0.147427 -0.921500 -0.184323 0.600000 0.000000 0.300000
-0.080934 0.453464 0.115264 0.300000 0.000000 0.600000
-0.085471 0.357430 0.112868 0.500000 0.500000 0.000000
-0.064987 0.443955 0.317590 0.500000 0.500000 0.000000
0.065680 -0.610888 -0.189731 0.600000 0.000000 0.300000
-0.101784 0.452182 0.153786 0.500000 0.500000 0.000000
0.023457 -0.921500 -0.257936 0.600000 0.000000 0.300000
0.146462 0.372370 0.352841 0.500000 0.500000 0.000000
0.031920 -0.921500 -0.119601 0.600000 0.000000 0.300000
-0.072138 0.385861 0.125102 0.300000 0.000000 0.600000
0.003010 0.538579 0.007564 0.600000 0.000000 0.300000
0.184892 0.349106 0.274532 0.500000 0.500000 0.000000
-0.049760 0.572693 0.126932 0.000000 0.000000 1.000000
-0.036920 0.548419 0.211105 0.500000 0.500000 0.000000
0.138483 0.287614 0.120786 0.500000 0.500000 0.000000
0.102627 -0.900349 -0.318352 0.600000 0.000000 0.300000
0.047477 0.394652 0.169106 0.000000 1.000000 0.000000
0.047327 0.433764 -0.026004 0.500000 0.000000 0.500000
0.015224 -0.406794 -0.251787 0.000000 0.500000 0.500000
0.000473 0.453447 0.214352 0.300000 0.000000 0.600000
-0.004625 -0.563615 -0.222721 0.600000 0.300000 0.000000
-0.003044 0.174867 -0.435933 0.800000 0.200000 0.500000
0.006930 -0.084986 -0.477536 0.600000 0.000000 0.300000
0.094891 0.439232 0.206579 0.500000 0.500000 0.000000
0.003316 0.423132 0.128739 0.000000 1.000000 0.000000
0.065613 0.521904 0.113530 0.000000 0.000000 1.000000
0.046013 0.429810 0.209534 0.300000 0.000000 0.600000
0.148598 0.394075 0.255532 0.500000 0.500000 0.000000
0.020429 -0.782960 -0.222127 0.500000 0.500000 0.000000
0.188924 0.253394 0.230262 0.500000 0.500000 0.000000
-0.069754 0.318127 0.241102 0.000000 1.000000 0.000000
0.036598 0.467320 0.146988 0.000000 1.000000 0.000000
0.069193 0.369804 0.238791 0.000000 1.000000 0.000000
-0.014866 0.401202 0.131549 0.300000 0.000000 0.600000
0.027810 -0.139870 -0.359025 0.800000 0.200000 0.500000
0.054772 -0.716809 -0.194086 0.600000 0.000000 0.300000
0.105839 0.182621 0.122220 0.500000 0.500000 0.000000
-0.039980 -0.088264 -0.386205 0.000000 0.000000 1.000000
-0.023911 0.461601 0.279063 0.500000 0.500000 0.000000
0.031469 -0.900349 -0.360610 0.600000 0.000000 0.300000
0.029050 0.403165 0.149220 0.000000 1.000000 0.000000
0.069962 0.216638 0.084679 0.500000 0.500000 0.000000
0.026464 -0.708953 -0.216444 0.500000 0.500000 0.000000
-0.020406 -0.876212 -0.202408 0.600000 0.000000 0.300000
0.062569 -0.691783 -0.193274 0.600000 0.000000 0.300000
-0.118988 0.411930 0.213924 0.500000 0.500000 0.000000
0.186931 0.244134 0.208434 0.500000 0.500000 0.000000
0.089490 -0.900349 -0.295856 0.600000 0.000000 0.300000
0.008662 -0.057178 -0.472214 0.600000 0.000000 0.300000
-0.030664 0.571260 0.148866 0.000000 0.000000 1.000000
0.188113 0.283447 0.327918 0.500000 0.500000 0.000000
-0.132877 -0.921500 -0.283696 0.600000 0.000000 0.300000
0.016577 -0.034092 -0.427065 0.800000 0.200000 0.500000
-0.006231 0.200973 0.075929 0.500000 0.500000 0.000000
-0.034478 0.440683 0.145434 0.000000 1.000000 0.000000
-0.007153 0.242068 -0.337314 0.800000 0.200000 0.500000
-0.041709 -0.376058 -0.277178 0.000000 0.000000 1.000000
-0.010598 0.521100 0.052468 0.000000 0.000000 1.000000
0.147328 -0.920251 -0.035704 0.600000 0.000000 0.300000
0.121936 -0.907310 -0.377859 0.600000 0.000000 0.300000
-0.040958 -0.694975 -0.199118 0.500000 0.500000 0.000000
0.055837 -0.921500 -0.372388 0.600000 0.000000 0.300000
0.005193 -0.493081 -0.247839 0.600000 0.000000 0.300000
-0.013683 0.422128 0.131597 0.000000 1.000000 0.000000
-0.045886 -0.490113 -0.224534 0.000000 0.000000 1.000000
-0.040999 -0.492910 -0.206016 0.500000 0.500000 0.000000
0.058629 0.548708 0.137990 0.000000 1.000000 0.000000
-0.192077 0.242799 0.240254 0.500000 0.500000 0.000000
-0.059894 -0.386649 -0.275017 0.000000 0.000000 1.000000
0.040566 0.291846 0.255051 0.000000 1.000000 0.000000
0.178392 0.327154 0.325188 0.500000 0.500000 0.000000
0.122069 0.389382 0.368942 0.500000 0.500000 0.000000
-0.012356 0.131443 -0.500436 0.000000 0.000000 1.000000
-0.064291 -0.677311 -0.190058 0.300000 0.000000 0.600000
0.091783 0.367951 0.409435 0.500000 0.500000 0.000000
0.038302 0.176377 0.094240 0.500000 0.500000 0.000000
-0.008242 -0.670662 -0.205895 0.600000 0.300000 0.000000
-0.036921 -0.158214 -0.378522 0.000000 0.000000 1.000000
0.175160 0.349778 0.302589 0.500000 0.500000 0.000000
0.082491 0.424985 0.355316 0.500000 0.500000 0.000000
-0.160195 0.311366 0.368147 0.500000 0.500000 0.000000
0.102437 -0.918267 -0.034958 0.600000 0.000000 0.300000
0.094280 0.412149 0.177027 0.300000 0.000000 0.600000
0.019599 0.087596 -0.463153 0.800000 0.200000 0.500000
0.019994 -0.878422 -0.206016 0.600000 0.000000 0.300000
0.027538 -0.900349 -0.069883 0.600000 0.000000 0.300000
-0.020536 -0.900349 -0.095427 0.600000 0.000000 0.300000
0.150788 0.216697 0.149453 0.500000 0.500000 0.000000
-0.003427 0.364164 -0.124296 0.800000 0.200000 0.500000
-0.191863 0.321854 0.253822 0.500000 0.500000 0.000000
0.129943 0.282422 0.111253 0.500000 0.500000 0.000000
-0.023352 -0.076643 -0.387519 0.000000 0.000000 1.000000
0.037925 -0.410918 -0.255976 0.000000 0.500000 0.500000
0.058072 0.522227 0.193297 0.300000 0.000000 0.600000
-0.025762 0.246617 0.068109 0.500000 0.500000 0.000000
-0.005915 -0.244048 -0.397350 0.600000 0.000000 0.300000
0.000384 -0.900349 -0.095434 0.600000 0.000000 0.300000
0.036339 0.414451 0.088960 0.300000 0.000000 0.600000
0.101977 0.432476 0.236371 0.500000 0.500000 0.000000
-0.097072 0.400800 0.143897 0.500000 0.500000 0.000000
0.154888 0.370594 0.205386 0.500000 0.500000 0.000000
-0.009561 -0.413041 -0.256661 0.000000 0.500000 0.500000
0.032331 0.292628 0.071292 0.500000 0.500000 0.000000
0.001128 -0.499434 -0.216188 0.500000 0.000000 0.500000
-0.001570 0.339358 0.138520 0.000000 1.000000 0.000000
0.021144 -0.765813 -0.189754 0.500000 0.500000 0.000000
0.043028 -0.495610 -0.219497 0.800000 0.200000 0.500000
0.050604 0.503445 0.081557 0.000000 0.000000 1.000000
-0.012362 0.107267 -0.490362 0.000000 0.000000 1.000000
0.042867 -0.414252 -0.244960 0.000000 0.500000 0.500000
0.041969 -0.380434 -0.259628 0.800000 0.200000 0.500000
0.008733 0.072953 -0.477789 0.800000 0.200000 0.500000
0.167017 -0.900349 -0.214619 0.600000 0.000000 0.300000
-0.142853 0.392408 0.214263 0.500000 0.500000 0.000000
-0.072289 -0.900349 -0.293118 0.600000 0.000000 0.300000
0.066279 -0.625538 -0.195219 0.600000 0.000000 0.300000
-0.040968 -0.644055 -0.218051 0.500000 0.500000 0.000000
-0.036547 0.424152 0.150817 0.000000 1.000000 0.000000
0.079937 0.549074 0.137449 0.000000 1.000000 0.000000
0.016600 0.008763 -0.453829 0.800000 0.200000 0.500000
0.015105 -0.818178 -0.220349 0.600000 0.000000 0.300000
0.117350 -0.900349 -0.266209 0.600000 0.000000 0.300000
-0.025694 0.509084 0.238804 0.500000 0.500000 0.000000
-0.074142 0.291538 0.083589 0.500000 0.500000 0.000000
0.023517 0.421404 0.078807 0.300000 0.000000 0.600000
0.165618 -0.921500 -0.148178 0.600000 0.000000 0.300000
0.058047 0.297679 0.233224 0.000000 1.000000 0.000000
0.194429 0.270862 0.235244 0.500000 0.500000 0.000000
-0.133401 0.280591 0.115355 0.500000 0.500000 0.000000
-0.011307 0.042692 -0.466901 0.000000 0.000000 1.000000
-0.087726 0.301042 0.092052 0.500000 0.500000 0.000000
-0.167469 0.249102 0.160368 0.500000 0.500000 0.000000
0.056449 -0.692460 -0.210813 0.600000 0.000000 0.300000
0.070894 -0.900349 -0.227972 0.600000 0.000000 0.300000
-0.035952 0.426209 0.382100 0.500000 0.500000 0.000000
-0.118497 0.365437 0.386739 0.500000 0.500000 0.000000
-0.026591 -0.598759 -0.212070 0.500000 0.500000 0.000000
-0.045251 0.565398 0.137920 0.000000 0.000000 1.000000
0.030632 0.413339 0.401868 0.500000 0.500000 0.000000
0.011567 0.040165 -0.446934 0.800000 0.200000 0.500000
-0.129114 0.375016 0.164322 0.500000 0.500000 0.000000
0.054692 0.409332 0.394445 0.500000 0.500000 0.000000
-0.120669 -0.900349 -0.125804 0.600000 0.000000 0.300000
-0.034969 -0.154318 -0.352508 0.000000 0.000000 1.000000
0.133921 -0.921500 -0.213868 0.600000 0.000000 0.300000
0.005978 0.287136 -0.288469 0.800000 0.200000 0.500000
0.077455 0.435696 0.228246 0.300000 0.000000 0.600000
0.001760 -0.847957 -0.186208 0.600000 0.000000 0.300000
-0.047803 -0.570266 -0.182796 0.300000 0.000000 0.600000
-0.092899 -0.900349 -0.254172 0.600000 0.000000 0.300000
0.039284 0.506952 0.217316 0.300000 0.000000 0.600000
0.023633 0.005437 -0.424549 0.800000 0.200000 0.500000
-0.033181 -0.900349 -0.042136 0.600000 0.000000 0.300000
0.171244 -0.903026 -0.290469 0.600000 0.000000 0.300000
0.003223 -0.674981 -0.225638 0.600000 0.300000 0.000000
-0.190092 0.233670 0.228143 0.500000 0.500000 0.000000
0.078165 0.334555 0.103331 0.500000 0.500000 0.000000
-0.043215 -0.266659 -0.329636 0.000000 0.000000 1.000000
0.079996 0.419602 0.200370 0.300000 0.000000 0.600000
0.052840 0.433143 0.361941 0.500000 0.500000 0.000000
0.091386 0.538554 0.104614 0.000000 1.000000 0.000000
-0.185946 0.287952 0.191936 0.500000 0.500000 0.000000
0.062074 0.309044 0.083474 0.500000 0.500000 0.000000
-0.025253 0.370506 0.427700 0.500000 0.500000 0.000000
0.088840 0.470745 0.097414 0.500000 0.500000 0.000000
0.153191 0.348053 0.168878 0.500000 0.500000 0.000000
-0.038098 -0.522764 -0.189754 0.500000 0.500000 0.000000
-0.013125 0.452887 0.330614 0.500000 0.500000 0.000000
0.067238 0.446869 0.303915 0.500000 0.500000 0.000000
-0.010396 -0.758518 -0.189754 0.500000 0.500000 0.000000
-0.099347 0.405855 0.371515 0.500000 0.500000 0.000000
0.129838 0.412441 0.281434 0.500000 0.500000 0.000000
-0.152488 -0.900349 -0.306381 0.600000 0.000000 0.300000
0.026454 -0.656435 -0.196650 0.500000 0.500000 0.000000
0.109965 0.381325 0.151144 0.500000 0.500000 0.000000
-0.171656 -0.912181 -0.293267 0.600000 0.000000 0.300000
0.001282 -0.921500 -0.231461 0.600000 0.000000 0.300000
0.030889 -0.900349 -0.338767 0.600000 0.000000 0.300000
0.010203 -0.871572 -0.189055 0.600000 0.000000 0.300000
-0.007971 -0.900349 -0.353880 0.600000 0.000000 0.300000
0.171984 0.351801 0.205834 0.500000 0.500000 0.000000
0.004135 0.438580 -0.039790 0.800000 0.200000 0.500000
-0.101105 -0.921500 -0.369666 0.600000 0.000000 0.300000
0.052797 0.493501 0.064334 0.000000 0.000000 1.000000
0.072248 -0.914815 -0.034958 0.600000 0.000000 0.300000
0.047261 -0.293174 -0.317664 0.800000 0.200000 0.500000
0.001710 0.563604 0.161865 0.000000 0.000000 1.000000
-0.150487 -0.909937 -0.034958 0.600000 0.000000 0.300000
-0.009942 -0.198233 -0.396280 0.600000 0.000000 0.300000
0.037259 -0.318810 -0.295862 0.800000 0.200000 0.500000
-0.056010 0.504757 0.083832 0.000000 0.000000 1.000000
0.047144 -0.200418 -0.353206 0.800000 0.200000 0.500000
-0.128313 0.414668 0.299110 0.500000 0.500000 0.000000
-0.043941 0.324497 0.156166 0.000000 1.000000 0.000000
0.061448 -0.664141 -0.188440 0.600000 0.000000 0.300000
0.040488 -0.775527 -0.190434 0.500000 0.500000 0.000000
-0.140736 -0.921500 -0.170965 0.600000 0.000000 0.300000
0.160276 0.356877 0.196695 0.500000 0.500000 0.000000
-0.105827 0.359322 0.132393 0.500000 0.500000 0.000000
0.033950 -0.921500 -0.258237 0.600000 0.000000 0.300000
-0.077984 0.472608 0.197979 0.300000 0.000000 0.600000
-0.137621 -0.921500 -0.130337 0.600000 0.000000 0.300000
0.007783 -0.474614 -0.253235 0.600000 0.000000 0.300000
-0.037306 0.523427 0.225554 0.500000 0.500000 0.000000
-0.168423 0.361261 0.322287 0.500000 0.500000 0.000000
0.024560 -0.756024 -0.189754 0.500000 0.500000 0.000000
0.008831 0.442091 0.229733 0.300000 0.000000 0.600000
0.175069 0.333652 0.193066 0.500000 0.500000 0.000000
-0.047699 0.444329 0.243199 0.300000 0.000000 0.600000
-0.025501 -0.900349 -0.053169 0.600000 0.000000 0.300000
0.005940 0.383364 0.131810 0.300000 0.000000 0.600000
0.008604 -0.284668 -0.363684 0.600000 0.000000 0.300000
-0.161327 0.379977 0.229455 0.500000 0.500000 0.000000
-0.020532 0.431684 0.383059 0.500000 0.500000 0.000000
-0.108581 0.325161 0.112563 0.500000 0.500000 0.000000
-0.079195 -0.921500 -0.369212 0.600000 0.000000 0.300000
-0.074346 -0.921500 -0.229806 0.600000 0.000000 0.300000
0.023728 0.483913 0.252178 0.500000 0.500000 0.000000
-0.195483 0.274511 0.251775 0.500000 0.500000 0.000000
-0.095688 0.522943 0.140808 0.000000 0.000000 1.000000
0.176278 0.323972 0.185220 0.500000 0.500000 0.000000
-0.015014 0.407053 0.261792 0.000000 1.000000 0.000000
0.102535 0.369820 0.134391 0.500000 0.500000 0.000000
-0.051917 0.447991 0.327473 0.500000 0.500000 0.000000
0.135890 -0.921500 -0.128025 0.600000 0.000000 0.300000
-0.005188 0.258821 0.065702 0.500000 0.500000 0.000000
0.009999 0.584193 0.033338 0.000000 0.000000 1.000000
-0.006519 -0.742217 -0.199080 0.600000 0.000000 0.300000
-0.140545 0.319496 0.134706 0.500000 0.500000 0.000000
0.008671 -0.021146 -0.491085 0.600000 0.000000 0.300000
0.083357 -0.900349 -0.217330 0.600000 0.000000 0.300000
-0.160522 0.283058 0.139916 0.500000 0.500000 0.000000
-0.066992 -0.921500 -0.254355 0.600000 0.000000 0.300000
-0.041848 -0.921500 -0.236185 0.600000 0.000000 0.300000
0.103946 0.424077 0.327296 0.500000 0.500000 0.000000
0.015255 0.331575 0.291450 0.000000 1.000000 0.000000
0.024589 0.391298 0.144542 0.000000 1.000000 0.000000
-0.005344 0.294825 0.275838 0.000000 1.000000 0.000000
0.062281 0.337821 0.171850 0.000000 1.000000 0.000000
-0.048415 0.500551 0.233448 0.500000 0.500000 0.000000
0.064351 0.388181 0.107458 0.500000 0.500000 0.000000
-0.084174 -0.921500 -0.116510 0.600000 0.000000 0.300000
0.034681 0.216047 0.073623 0.500000 0.500000 0.000000
0.011010 0.040667 -0.466175 0.800000 0.200000 0.500000
-0.077507 0.492994 0.186952 0.300000 0.000000 0.600000
0.100665 -0.921500 -0.279714 0.600000 0.000000 0.300000
0.014703 0.505614 0.120305 0.000000 1.000000 0.000000
0.113982 0.275624 0.099589 0.500000 0.500000 0.000000
0.039642 0.436530 0.157602 0.300000 0.000000 0.600000
-0.016131 -0.442533 -0.290488 0.000000 0.500000 0.500000
0.167721 0.368608 0.315747 0.500000 0.500000 0.000000
0.042185 0.445353 0.244973 0.300000 0.000000 0.600000
0.070523 -0.921500 -0.154086 0.600000 0.000000 0.300000
-0.034839 -0.645172 -0.189754 0.500000 0.500000 0.000000
-0.008381 0.395428 0.419455 0.500000 0.500000 0.000000
0.006200 0.128949 -0.547326 0.800000 0.200000 0.500000
-0.079594 0.544156 0.143796 0.000000 1.000000 0.000000
0.161287 -0.921500 -0.069340 0.600000 0.000000 0.300000
-0.019415 -0.921500 -0.156677 0.600000 0.000000 0.300000
0.033770 -0.906196 -0.377859 0.600000 0.000000 0.300000
0.028734 0.544384 0.216257 0.500000 0.500000 0.000000
0.043029 -0.424272 -0.231779 0.800000 0.200000 0.500000
0.093798 0.482858 0.177858 0.500000 0.500000 0.000000
-0.007123 0.121382 -0.546078 0.800000 0.200000 0.500000
-0.148084 0.386420 0.328567 0.500000 0.500000 0.000000
-0.170704 0.367896 0.225279 0.500000 0.500000 0.000000
-0.014795 0.431793 -0.035625 0.500000 0.000000 0.500000
0.159148 0.233158 0.159630 0.500000 0.500000 0.000000
-0.050015 0.594307 0.114069 0.000000 0.000000 1.000000
0.141622 -0.921500 -0.307380 0.600000 0.000000 0.300000
-0.052934 -0.269988 -0.312981 0.000000 0.000000 1.000000
-0.161584 -0.921500 -0.206301 0.600000 0.000000 0.300000
0.018191 -0.745612 -0.197704 0.600000 0.000000 0.300000
0.001481 0.193674 -0.404975 0.800000 0.200000 0.500000
-0.016998 0.380343 0.083715 0.500000 0.500000 0.000000
0.171244 -0.903509 -0.154340 0.600000 0.000000 0.300000
-0.081680 0.482488 0.210264 0.500000 0.500000 0.000000
-0.036650 -0.138624 -0.359582 0.000000 0.000000 1.000000
-0.003679 0.522706 0.011693 0.600000 0.000000 0.300000
0.044691 0.468778 0.051079 0.000000 0.000000 1.000000
0.061593 -0.437061 -0.241228 0.800000 0.200000 0.500000
0.008583 -0.367213 -0.312770 0.600000 0.000000 0.300000
-0.099307 0.238801 0.089329 0.500000 0.500000 0.000000
-0.195833 0.287684 0.247238 0.500000 0.500000 0.000000
-0.026589 -0.610856 -0.213223 0.500000 0.500000 0.000000
-0.000174 0.432186 0.380585 0.500000 0.500000 0.000000
0.000442 0.427110 0.392085 0.500000 0.500000 0.000000
-0.087707 0.441519 0.251024 0.500000 0.500000 0.000000
-0.063699 -0.921500 -0.205664 0.600000 0.000000 0.300000
-0.064471 0.450180 0.276819 0.500000 0.500000 0.000000
-0.048307 -0.210357 -0.350208 0.000000 0.000000 1.000000
0.053310 0.479753 0.230209 0.500000 0.500000 0.000000
0.008693 0.068828 -0.536758 0.600000 0.000000 0.300000
-0.181981 0.218320 0.201985 0.500000 0.500000 0.000000
-0.153349 0.237775 0.139022 0.500000 0.500000 0.000000
0.021642 0.165238 0.098139 0.500000 0.500000 0.000000
0.038476 0.314567 0.277912 0.000000 1.000000 0.000000
0.097172 0.503457 0.075959 0.500000 0.000000 0.500000
0.105256 0.336990 0.412508 0.500000 0.500000 0.000000
0.027938 0.513530 0.107788 0.000000 1.000000 0.000000
0.004799 0.004919 -0.494507 0.600000 0.000000 0.300000
-0.028951 -0.127604 -0.364549 0.000000 0.000000 1.000000
0.061599 -0.479947 -0.206410 0.800000 0.200000 0.500000
0.104186 -0.900349 -0.184863 0.600000 0.000000 0.300000
-0.057094 -0.921500 -0.096829 0.600000 0.000000 0.300000
0.129921 0.329635 0.133774 0.500000 0.500000 0.000000
0.017529 0.602960 0.135555 0.000000 0.000000 1.000000
-0.056870 -0.921500 -0.262607 0.600000 0.000000 0.300000
-0.035423 -0.601617 -0.189754 0.500000 0.500000 0.000000
-0.171656 -0.916618 -0.135784 0.600000 0.000000 0.300000
-0.028964 0.467557 0.120403 0.000000 1.000000 0.000000
0.066369 -0.921500 -0.081967 0.600000 0.000000 0.300000
0.117193 0.365095 0.385688 0.500000 0.500000 0.000000
0.008577 -0.390119 -0.307099 0.600000 0.000000 0.300000
0.188731 0.292962 0.198017 0.500000 0.500000 0.000000
-0.054471 -0.503137 -0.197280 0.500000 0.000000 0.500000
0.110043 -0.914069 -0.377859 0.600000 0.000000 0.300000
0.018227 -0.056544 -0.416104 0.800000 0.200000 0.500000
0.193237 0.237980 0.250439 0.500000 0.500000 0.000000
-0.009871 0.081287 -0.549460 0.600000 0.000000 0.300000
-0.007185 0.362169 -0.146437 0.800000 0.200000 0.500000
0.181408 0.307486 0.316821 0.500000 0.500000 0.000000
-0.006147 0.340827 -0.201145 0.800000 0.200000 0.500000
-0.009042 0.533103 0.212999 0.300000 0.000000 0.600000
0.044590 0.418625 0.157219 0.300000 0.000000 0.600000
-0.050669 0.601291 0.075680 0.000000 0.000000 1.000000
0.004147 -0.301698 -0.368377 0.600000 0.000000 0.300000
-0.136715 0.406845 0.321048 0.500000 0.500000 0.000000
-0.040954 -0.713646 -0.196041 0.500000 0.500000 0.000000
0.026930 0.018333 -0.430365 0.800000 0.200000 0.500000
-0.010006 -0.453315 -0.281527 0.600000 0.000000 0.300000
0.061593 -0.466204 -0.232788 0.800000 0.200000 0.500000
-0.032710 -0.244557 -0.318052 0.000000 0.000000 1.000000
-0.055299 0.423921 0.077167 0.500000 0.500000 0.000000
-0.034039 -0.269534 -0.327908 0.000000 0.000000 1.000000
-0.008286 -0.619287 -0.231493 0.600000 0.300000 0.000000
0.048522 -0.643290 -0.208460 0.600000 0.000000 0.300000
-0.087002 0.500514 0.155579 0.300000 0.000000 0.600000
-0.052845 0.538592 0.142434 0.000000 0.000000 1.000000
0.177534 0.299763 0.175695 0.500000 0.500000 0.000000
-0.053137 -0.690581 -0.211266 0.300000 0.000000 0.600000
0.026690 0.314913 0.152599 0.000000 1.000000 0.000000
0.024677 -0.419611 -0.271792 0.000000 0.500000 0.500000
0.009077 0.602971 0.050344 0.000000 0.000000 1.000000
0.009511 0.507889 0.137653 0.000000 1.000000 0.000000
-0.010928 0.357567 0.089239 0.500000 0.500000 0.000000
0.015386 -0.921500 -0.307148 0.600000 0.000000 0.300000
0.013904 -0.533514 -0.247950 0.600000 0.000000 0.300000
-0.043553 0.550715 0.117920 0.000000 1.000000 0.000000
0.064871 -0.531205 -0.190522 0.800000 0.200000 0.500000
0.013720 -0.900349 -0.311634 0.600000 0.000000 0.300000
-0.059721 -0.363460 -0.270743 0.000000 0.000000 1.000000
-0.046131 -0.596009 -0.184258 0.300000 0.000000 0.600000
-0.038733 0.421142 0.084945 0.300000 0.000000 0.600000
0.035754 0.475229 0.238797 0.300000 0.000000 0.600000
-0.001347 -0.026999 -0.506777 0.600000 0.000000 0.300000
0.055136 0.510671 0.202573 0.300000 0.000000 0.600000
0.004415 -0.027227 -0.478297 0.600000 0.000000 0.300000
-0.006554 0.177931 -0.468888 0.800000 0.200000 0.500000
-0.080350 0.438352 0.158499 0.500000 0.500000 0.000000
-0.042114 -0.375198 -0.261839 0.000000 0.000000 1.000000
-0.090988 -0.921500 -0.288401 0.600000 0.000000 0.300000
-0.091759 0.473096 0.020677 0.500000 0.000000 0.500000
0.005187 -0.519188 -0.244281 0.600000 0.000000 0.300000
0.051031 -0.921500 -0.210860 0.600000 0.000000 0.300000
-0.111435 0.406488 0.180775 0.500000 0.500000 0.000000
-0.040723 0.461008 0.251486 0.300000 0.000000 0.600000
-0.009900 -0.033428 -0.483884 0.600000 0.000000 0.300000
0.085416 0.277077 0.085566 0.500000 0.500000 0.000000
0.032173 -0.921500 -0.347651 0.600000 0.000000 0.300000
0.000914 -0.687387 -0.223154 0.600000 0.300000 0.000000
0.075242 0.445166 0.224908 0.300000 0.000000 0.600000
0.008585 -0.359327 -0.319005 0.600000 0.000000 0.300000
0.049055 -0.592151 -0.203329 0.600000 0.000000 0.300000
-0.002888 0.136780 -0.593592 1.000000 0.000000 0.000000
0.165165 -0.921500 -0.305182 0.600000 0.000000 0.300000
-0.027106 0.623056 0.103637 0.000000 0.000000 1.000000
-0.004001 0.298832 0.154454 0.000000 1.000000 0.000000
-0.109066 -0.921500 -0.362513 0.600000 0.000000 0.300000
-0.009597 -0.751105 -0.222127 0.500000 0.500000 0.000000
0.167207 0.371320 0.245452 0.500000 0.500000 0.000000
-0.101236 -0.921500 -0.261774 0.600000 0.000000 0.300000
-0.042081 0.530339 0.219279 0.500000 0.500000 0.000000
-0.000896 -0.061039 -0.489612 0.600000 0.000000 0.300000
0.004601 0.140007 -0.507738 0.800000 0.200000 0.500000
-0.135254 -0.903955 -0.377859 0.600000 0.000000 0.300000
0.081218 0.429264 0.142759 0.500000 0.500000 0.000000
0.019985 0.040480 -0.440350 0.800000 0.200000 0.500000
0.006224 0.172208 -0.475801 0.800000 0.200000 0.500000
0.163898 -0.900349 -0.359267 0.600000 0.000000 0.300000
-0.001412 0.416582 -0.038003 0.800000 0.200000 0.500000
-0.120534 0.217829 0.118270 0.500000 0.500000 0.000000
0.014390 0.407971 0.070075 0.500000 0.500000 0.000000
0.025357 -0.156784 -0.375034 0.800000 0.200000 0.500000
0.067682 0.370833 0.191515 0.000000 1.000000 0.000000
0.033981 0.289094 0.175148 0.000000 1.000000 0.000000
-0.029698 -0.511437 -0.189754 0.500000 0.500000 0.000000
0.165746 0.296346 0.159852 0.500000 0.500000 0.000000
-0.005720 0.562413 0.183693 0.000000 0.000000 1.000000
-0.005090 0.357657 -0.173583 0.800000 0.200000 0.500000
0.042865 0.455123 0.053093 0.500000 0.500000 0.000000
0.099530 0.505236 0.108739 0.500000 0.000000 0.500000
-0.006678 0.616577 0.070977 0.000000 0.000000 1.000000
0.012200 0.367371 0.098856 0.300000 0.000000 0.600000
-0.087786 0.338075 0.105791 0.500000 0.500000 0.000000
0.160795 -0.900349 -0.039725 0.600000 0.000000 0.300000
0.112558 -0.900349 -0.134812 0.600000 0.000000 0.300000
0.011642 -0.823266 -0.190947 0.600000 0.000000 0.300000
0.047504 0.460072 0.196118 0.500000 0.500000 0.000000
-0.067645 -0.900349 -0.368307 0.600000 0.000000 0.300000
-0.191424 0.235913 0.218146 0.500000 0.500000 0.000000
-0.009351 0.441050 0.237519 0.300000 0.000000 0.600000
0.010353 0.054671 -0.459336 0.800000 0.200000 0.500000
0.036155 -0.921500 -0.093573 0.600000 0.000000 0.300000
-0.184321 0.249435 0.190543 0.500000 0.500000 0.000000
-0.012173 0.511614 0.143114 0.000000 1.000000 0.000000
-0.020199 -0.847906 -0.200410 0.600000 0.000000 0.300000
-0.018253 0.470728 0.214576 0.500000 0.500000 0.000000
-0.193551 0.326487 0.235000 0.500000 0.500000 0.000000
-0.001723 0.437325 0.156720 0.500000 0.500000 0.000000
-0.087215 -0.900349 -0.142164 0.600000 0.000000 0.300000
0.045540 -0.556025 -0.181666 0.600000 0.000000 0.300000
-0.007134 0.163654 -0.476999 0.800000 0.200000 0.500000
-0.050692 0.361397 0.429085 0.500000 0.500000 0.000000
-0.032510 0.503765 0.071722 0.000000 0.000000 1.000000
