ply
format ascii 1.0
element vertex 1268
property float x
property float y
property float z
property uchar red
property uchar green
property uchar blue
end_header
-0.147658 -0.900349 -0.328846 153 0 76
0.026432 -0.550580 -0.220021 127 127 0
0.013351 -0.418603 -0.277225 0 127 127
-0.023821 0.439684 0.367515 127 127 0
-0.013622 0.625215 0.095767 0 0 255
0.006632 0.154981 -0.503079 204 51 127
0.100340 0.433760 0.214556 127 127 0
-0.054101 0.587580 0.064829 0 0 255
0.131600 0.384945 0.185206 127 127 0
-0.094595 0.456045 0.114387 127 127 0
0.045655 0.363091 0.432838 127 127 0
0.097691 0.430154 0.149390 127 127 0
-0.009955 -0.250337 -0.372261 153 0 76
-0.074039 0.464787 0.236306 127 127 0
0.067965 0.385982 0.123520 76 0 153
-0.007198 0.415643 -0.051777 204 51 127
0.076862 0.478331 0.079068 0 0 255
0.008653 -0.094833 -0.469646 153 0 76
-0.151763 0.356206 0.361732 127 127 0
0.056524 0.537676 0.101263 0 0 255
0.008802 0.106300 -0.497803 204 51 127
0.106940 0.277058 0.095464 127 127 0
-0.171656 -0.918302 -0.204866 153 0 76
-0.048254 -0.468316 -0.207124 0 0 255
-0.007187 0.375468 -0.114511 204 51 127
0.014249 -0.497323 -0.216508 127 0 127
0.071350 -0.900349 -0.365728 153 0 76
0.064706 -0.622467 -0.189154 153 0 76
0.008706 0.119619 -0.564228 153 0 76
-0.043193 0.436560 -0.032345 127 0 127
-0.161983 0.380818 0.241975 127 127 0
0.136308 -0.900349 -0.085545 153 0 76
0.102772 0.532205 0.148427 0 255 0
-0.160221 0.200796 0.175852 127 127 0
-0.195811 0.317085 0.232653 127 127 0
0.077169 0.453881 0.243737 127 127 0
0.015693 -0.850348 -0.219353 153 0 76
-0.167572 -0.900349 -0.164909 153 0 76
-0.010660 -0.666255 -0.214224 153 76 0
0.084753 0.470409 0.127581 76 0 153
-0.004072 -0.900349 -0.057912 153 0 76
-0.039809 0.551527 0.130181 0 255 0
0.040163 0.440870 0.355019 127 127 0
-0.171656 -0.902976 -0.223336 153 0 76
0.132551 -0.921500 -0.319195 153 0 76
-0.028304 0.370210 0.431777 127 127 0
0.098087 0.489748 0.150627 127 127 0
0.044842 0.431534 0.221038 76 0 153
0.013069 -0.444329 -0.283636 0 127 127
0.129297 -0.900349 -0.338786 153 0 76
0.137859 0.343021 0.385581 127 127 0
-0.035070 0.537185 0.203153 76 0 153
-0.026589 -0.608496 -0.213736 127 127 0
-0.007634 0.095983 -0.482413 0 0 255
0.160104 0.386846 0.292423 127 127 0
-0.027394 0.406006 0.102475 127 127 0
-0.111560 -0.900349 -0.050921 153 0 76
0.066193 0.551506 0.121781 0 255 0
0.045203 0.396811 0.089949 127 127 0
-0.160912 0.237161 0.149659 127 127 0
0.034974 0.483892 0.249521 127 127 0
0.013902 -0.523815 -0.239168 153 0 76
0.021416 -0.096841 -0.388128 204 51 127
0.060466 -0.386521 -0.273838 204 51 127
-0.058674 0.554955 0.086321 0 0 255
0.074814 0.418512 0.198483 76 0 153
0.099378 -0.900349 -0.201686 153 0 76
-0.019409 0.596902 0.044678 0 0 255
-0.089039 0.390791 0.150469 76 0 153
-0.017415 -0.921500 -0.329948 153 0 76
-0.158637 0.387769 0.291757 127 127 0
0.020613 0.456774 0.304325 127 127 0
-0.045128 -0.164954 -0.366559 0 0 255
-0.001014 -0.613228 -0.212240 153 76 0
0.004121 -0.921500 -0.308266 153 0 76
0.059608 -0.921500 -0.341144 153 0 76
0.056638 0.473713 0.057822 0 0 255
-0.025478 -0.900349 -0.086801 153 0 76
0.109186 -0.900349 -0.283381 153 0 76
-0.164149 0.374205 0.322539 127 127 0
-0.040990 -0.533173 -0.218899 127 127 0
0.038815 0.459706 0.053535 0 0 255
0.063494 -0.682443 -0.208462 153 0 76
-0.096725 -0.900349 -0.128781 153 0 76
0.020817 -0.900349 -0.284717 153 0 76
-0.188008 0.217921 0.212475 127 127 0
-0.062125 -0.434293 -0.242778 0 0 255
0.174163 0.339194 0.316285 127 127 0
-0.032650 0.454894 0.131971 0 255 0
0.004068 -0.495546 -0.196339 127 0 127
-0.036748 0.285652 0.252757 0 255 0
0.040815 -0.572620 -0.211097 127 127 0
0.038910 -0.921500 -0.210633 153 0 76
0.008873 0.074441 -0.469458 204 51 127
0.072314 0.174254 0.112552 127 127 0
-0.085826 0.430830 0.142009 76 0 153
0.042279 -0.159544 -0.350158 204 51 127
-0.043850 0.351387 0.153639 0 255 0
-0.002082 -0.900349 -0.170721 153 0 76
-0.052797 -0.284601 -0.293795 0 0 255
0.037539 -0.239204 -0.314234 204 51 127
-0.156306 -0.921500 -0.161537 153 0 76
-0.037778 0.425318 0.203995 0 255 0
-0.039830 0.428323 0.081324 76 0 153
-0.076517 0.462614 0.099496 76 0 153
0.045629 -0.683897 -0.210237 153 0 76
0.146141 -0.919638 -0.377722 153 0 76
0.006256 0.197599 -0.423045 204 51 127
-0.152278 -0.900349 -0.116602 153 0 76
-0.007092 0.466935 0.208007 127 127 0
0.054511 0.321782 0.267887 0 255 0
-0.044530 -0.393286 -0.244699 0 0 255
-0.036788 -0.108579 -0.373124 0 0 255
-0.071117 0.381478 0.408122 127 127 0
-0.009944 -0.208203 -0.402926 153 0 76
0.078040 0.272739 0.082751 127 127 0
-0.028579 -0.180866 -0.368311 0 0 255
-0.042430 0.413996 0.399421 127 127 0
0.013723 -0.901125 -0.376643 153 0 76
0.168729 0.332735 0.184689 127 127 0
-0.058511 0.497964 0.072065 0 0 255
-0.025483 0.398693 0.144833 0 255 0
-0.031974 0.306721 0.276505 0 255 0
-0.134280 -0.921500 -0.076983 153 0 76
0.008656 -0.077230 -0.463203 153 0 76
0.097987 0.480521 0.056002 127 0 127
-0.040987 -0.548708 -0.216127 127 127 0
0.024725 0.352222 0.088362 127 127 0
-0.071341 0.529869 0.102438 0 255 0
-0.030674 -0.921500 -0.260386 153 0 76
0.144957 0.384135 0.205488 127 127 0
0.019668 -0.074572 -0.403081 204 51 127
0.012619 -0.641999 -0.213012 153 76 0
-0.046347 -0.359122 -0.287955 0 0 255
0.183767 0.330018 0.209686 127 127 0
-0.073734 0.452978 0.077364 127 127 0
-0.150988 0.396505 0.308793 127 127 0
0.127933 0.350198 0.143473 127 127 0
0.041179 -0.112632 -0.379043 204 51 127
-0.027534 0.288969 0.072026 127 127 0
0.068547 0.191638 0.100715 127 127 0
0.091495 0.421286 0.176499 76 0 153
-0.104169 0.541845 0.107970 0 255 0
0.067565 0.380276 0.205201 0 255 0
0.077926 0.535713 0.137447 0 0 255
-0.012219 0.033325 -0.454172 0 0 255
0.018982 0.270385 0.209735 0 255 0
0.011640 0.157895 0.105226 127 127 0
0.191779 0.261900 0.217167 127 127 0
-0.039633 -0.671287 -0.222127 127 127 0
-0.007159 0.265715 -0.303244 204 51 127
0.096412 0.445493 0.178616 127 127 0
0.005083 -0.674507 -0.199635 153 76 0
-0.004551 -0.027166 -0.506693 153 0 76
-0.066166 -0.900349 -0.210951 153 0 76
-0.054470 0.402883 0.162211 76 0 153
-0.002111 0.481644 0.043797 0 0 255
0.008551 -0.494598 -0.255844 153 0 76
-0.171489 -0.919669 -0.110455 153 0 76
0.023460 0.465236 0.179059 0 255 0
0.082897 0.449252 0.130677 76 0 153
-0.003495 0.430548 0.383335 127 127 0
0.045999 -0.900349 -0.271652 153 0 76
-0.110799 -0.900349 -0.240301 153 0 76
-0.190688 0.293428 0.317948 127 127 0
-0.011461 -0.629648 -0.218546 153 76 0
0.171244 -0.906211 -0.102235 153 0 76
-0.041255 0.537419 0.060052 0 0 255
-0.029893 -0.154542 -0.352407 0 0 255
0.020159 0.604010 0.053358 0 0 255
-0.114765 -0.921500 -0.101202 153 0 76
-0.051576 0.562752 0.190340 0 0 255
-0.020062 0.465121 0.042196 0 0 255
0.034240 0.408702 0.247914 0 255 0
0.163754 0.338527 0.350138 127 127 0
0.032478 -0.921500 -0.345392 153 0 76
-0.038938 -0.595268 -0.189754 76 0 153
-0.195634 0.301686 0.287071 127 127 0
0.057516 -0.597496 -0.207455 153 0 76
0.019994 -0.762525 -0.206415 153 0 76
0.061599 -0.510885 -0.200456 204 51 127
-0.033993 0.532514 0.221891 127 127 0
-0.164722 0.294012 0.146146 127 127 0
0.093851 -0.900349 -0.162647 153 0 76
-0.125828 0.391133 0.359841 127 127 0
-0.183424 0.307362 0.192793 127 127 0
-0.030986 0.555303 0.171378 0 0 255
0.026469 -0.732578 -0.212207 127 127 0
-0.158388 -0.921500 -0.176875 153 0 76
-0.049552 -0.921500 -0.140186 153 0 76
-0.031884 0.410987 0.087529 76 0 153
0.003513 0.449957 0.115062 0 255 0
-0.028617 -0.900349 -0.210654 153 0 76
-0.087974 0.550669 0.117734 0 255 0
0.053618 0.486409 0.217927 76 0 153
-0.130828 0.348604 0.385515 127 127 0
-0.053593 -0.900349 -0.262889 153 0 76
-0.074169 0.517333 0.201430 127 127 0
0.042657 -0.921500 -0.064989 153 0 76
0.008592 -0.166898 -0.408914 153 0 76
0.006219 0.336675 -0.202558 204 51 127
0.073811 0.530370 0.190368 127 127 0
0.023433 0.448699 0.211229 76 0 153
0.001096 0.526162 0.217814 76 0 153
-0.017678 0.503213 0.064224 0 0 255
-0.087538 0.500455 0.150892 76 0 153
0.184921 0.347335 0.262889 127 127 0
0.171244 -0.904169 -0.137576 153 0 76
0.042672 0.294534 0.256226 0 255 0
0.001566 0.406467 0.083460 76 0 153
0.028045 0.476795 0.167091 0 255 0
0.017268 0.623471 0.111052 0 0 255
0.053705 0.432454 0.073232 127 127 0
-0.045996 -0.500038 -0.191202 0 0 255
0.047900 -0.921500 -0.236356 153 0 76
-0.069674 0.367060 0.247103 0 255 0
-0.010005 -0.405670 -0.244448 0 127 127
0.040978 0.500599 0.076629 0 0 255
-0.066700 0.516777 0.146573 0 255 0
0.150337 0.370957 0.340023 127 127 0
-0.094530 -0.900349 -0.172879 153 0 76
-0.054145 -0.900349 -0.296585 153 0 76
0.051838 0.417455 0.098305 76 0 153
-0.100336 0.433320 0.149929 127 127 0
0.154111 -0.900349 -0.277746 153 0 76
0.029442 -0.900349 -0.130104 153 0 76
0.025922 0.544206 0.143778 0 255 0
-0.142817 0.384456 0.352571 127 127 0
0.015517 0.383995 0.281139 0 255 0
-0.005648 0.290918 0.070374 127 127 0
0.129402 0.233529 0.116322 127 127 0
0.058235 -0.416288 -0.233134 0 127 127
-0.018156 0.436917 0.067980 76 0 153
-0.007765 0.034743 -0.537912 153 0 76
-0.047829 -0.250523 -0.336910 0 0 255
0.095609 -0.900349 -0.235200 153 0 76
-0.070816 0.415389 0.117891 127 127 0
-0.107646 0.430313 0.260405 127 127 0
0.099438 0.494156 0.080898 127 0 127
-0.027727 0.450212 0.179042 127 127 0
0.084632 0.489492 0.158938 76 0 153
0.135511 -0.921500 -0.345879 153 0 76
-0.043894 -0.673175 -0.201441 76 0 153
-0.085215 0.443287 0.133115 76 0 153
0.010628 0.426257 0.229819 0 255 0
-0.058220 0.583875 0.080193 0 0 255
-0.093952 -0.921500 -0.188529 153 0 76
0.088831 0.446895 0.111159 127 127 0
0.006202 0.408243 -0.075789 204 51 127
-0.048443 -0.434730 -0.252270 0 0 255
0.102915 0.412776 0.163162 127 127 0
-0.042847 -0.921500 -0.083377 153 0 76
-0.118090 0.359782 0.395827 127 127 0
-0.058792 -0.522390 -0.208241 0 0 255
0.055799 -0.900349 -0.321914 153 0 76
-0.047927 0.387897 0.106167 76 0 153
-0.114877 -0.921500 -0.062621 153 0 76
0.022032 0.284970 0.070747 127 127 0
-0.137911 -0.921500 -0.133079 153 0 76
0.048134 -0.900349 -0.091320 153 0 76
0.084412 0.429955 0.343915 127 127 0
0.035659 0.478980 0.135952 0 255 0
0.029236 -0.408729 -0.254456 0 127 127
0.083664 0.218103 0.094423 127 127 0
0.158375 -0.921500 -0.199578 153 0 76
0.025001 0.441695 0.238637 76 0 153
-0.102788 0.340887 0.118467 127 127 0
0.009588 -0.808372 -0.188698 153 0 76
-0.171656 -0.905299 -0.054878 153 0 76
0.018244 0.291350 0.269634 0 255 0
0.156996 0.345579 0.176623 127 127 0
0.045949 0.383474 0.264884 0 255 0
-0.053042 -0.900349 -0.091035 153 0 76
-0.012881 0.029310 -0.438758 0 0 255
-0.030847 0.036783 -0.444289 0 0 255
0.043021 -0.404639 -0.266032 204 51 127
-0.124662 -0.921500 -0.267846 153 0 76
0.062810 0.459453 0.065725 127 127 0
0.033970 -0.219505 -0.323116 204 51 127
0.101571 -0.900349 -0.332723 153 0 76
-0.056542 0.411904 0.391940 127 127 0
-0.083809 0.467375 0.115275 76 0 153
0.138209 0.201401 0.140065 127 127 0
0.060944 0.473962 0.238897 127 127 0
-0.031159 0.583538 0.040238 0 0 255
-0.162646 0.351502 0.183807 127 127 0
0.146710 0.395807 0.302551 127 127 0
0.096854 -0.921500 -0.221077 153 0 76
-0.045908 -0.900349 -0.369132 153 0 76
-0.171656 -0.909106 -0.138149 153 0 76
0.094385 0.479161 0.038909 127 0 127
0.026435 -0.566654 -0.203149 127 127 0
0.041644 0.185424 0.089525 127 127 0
0.013669 0.351521 0.440011 127 127 0
-0.127719 0.305867 0.114318 127 127 0
0.006209 0.376201 -0.132943 204 51 127
0.084379 0.444484 0.255485 127 127 0
0.033636 -0.429143 -0.261558 0 127 127
-0.055963 -0.921500 -0.202701 153 0 76
-0.016634 -0.900349 -0.370365 153 0 76
-0.065056 -0.720198 -0.198977 127 127 0
-0.125929 0.413470 0.233014 127 127 0
-0.004567 -0.301757 -0.340000 153 0 76
0.133797 -0.900349 -0.238936 153 0 76
-0.090061 0.524314 0.102954 0 255 0
-0.012909 0.473475 0.249125 76 0 153
0.033242 0.442686 0.166006 127 127 0
0.065836 -0.921500 -0.250986 153 0 76
-0.026578 -0.661633 -0.200403 127 127 0
0.063072 0.537957 0.197843 127 127 0
-0.040817 -0.114828 -0.397178 0 0 255
-0.061862 -0.921500 -0.057890 153 0 76
0.007063 0.564597 0.031079 0 0 255
-0.007176 0.331234 -0.194220 204 51 127
0.023438 0.578528 0.036172 0 0 255
0.095804 0.504800 0.159597 127 127 0
-0.141214 0.409097 0.283836 127 127 0
0.035435 0.415652 0.227247 0 255 0
-0.116912 -0.921500 -0.191348 153 0 76
0.043332 -0.900349 -0.332144 153 0 76
-0.086935 0.441711 0.103699 127 127 0
0.057590 0.400598 0.167455 76 0 153
-0.080400 0.397458 0.162016 76 0 153
-0.052252 -0.470702 -0.234257 0 0 255
0.086266 0.490528 0.129297 76 0 153
-0.018121 -0.844772 -0.215931 153 0 76
0.065077 0.463203 0.201543 127 127 0
-0.000122 0.406802 0.268733 0 255 0
-0.040123 0.579952 0.135494 0 0 255
0.065910 0.350934 0.258236 0 255 0
-0.135589 0.388291 0.196451 127 127 0
0.143710 0.331243 0.377366 127 127 0
0.142217 0.251282 0.122909 127 127 0
0.016735 0.387240 0.081247 127 127 0
-0.043859 0.440171 0.196175 76 0 153
-0.174212 0.311647 0.342057 127 127 0
0.029167 -0.201295 -0.334461 204 51 127
0.064711 0.366377 0.105692 127 127 0
0.112737 -0.900349 -0.138340 153 0 76
-0.010017 -0.496419 -0.260714 153 0 76
-0.001261 0.143615 -0.494423 204 51 127
-0.007643 -0.526586 -0.256288 153 0 76
0.134890 -0.921500 -0.266771 153 0 76
-0.026563 -0.735812 -0.207157 127 127 0
0.145099 0.308720 0.132758 127 127 0
0.046146 0.586376 0.057021 0 0 255
-0.071225 0.260546 0.078728 127 127 0
-0.052818 0.427335 0.213765 76 0 153
-0.000391 -0.727282 -0.202649 153 76 0
-0.005470 0.611673 0.132569 0 0 255
-0.097650 -0.900349 -0.203992 153 0 76
-0.012539 -0.859038 -0.190172 153 0 76
0.043030 -0.475380 -0.213795 204 51 127
-0.006991 0.362954 -0.163139 204 51 127
-0.075331 0.399944 0.107871 127 127 0
-0.114257 0.406265 0.185629 127 127 0
0.040240 -0.900349 -0.361279 153 0 76
-0.087346 0.444016 0.238330 127 127 0
-0.171656 -0.912908 -0.360185 153 0 76
0.063099 0.393597 0.402131 127 127 0
-0.043337 0.444712 0.073541 76 0 153
-0.058810 0.538456 0.120848 0 0 255
-0.069464 0.348886 0.251868 0 255 0
-0.078065 0.405155 0.131207 76 0 153
-0.161155 0.264727 0.141146 127 127 0
-0.132888 -0.921500 -0.217204 153 0 76
0.109001 0.340234 0.121499 127 127 0
0.049471 0.374268 0.162933 0 255 0
-0.073561 0.521777 0.176266 76 0 153
0.040821 -0.602538 -0.219301 127 127 0
-0.095064 0.466594 0.029137 127 0 127
0.058446 -0.643489 -0.185277 153 0 76
0.053657 0.590776 0.098386 0 0 255
-0.048468 0.574331 0.053663 0 0 255
-0.044260 -0.613838 -0.198095 76 0 153
-0.019799 -0.033505 -0.434740 0 0 255
0.015746 0.422329 0.394573 127 127 0
0.038636 -0.335952 -0.283554 204 51 127
-0.060320 0.399632 0.094947 127 127 0
0.150229 0.387503 0.233813 127 127 0
0.015086 -0.687017 -0.210780 153 76 0
-0.007709 -0.563741 -0.223109 153 76 0
0.127926 0.410134 0.316010 127 127 0
0.179449 0.292924 0.184748 127 127 0
-0.045390 0.387500 0.264361 0 255 0
0.139869 0.350172 0.155482 127 127 0
0.167924 0.370106 0.310329 127 127 0
0.011076 0.517571 0.147093 0 255 0
0.082381 0.407880 0.144963 76 0 153
-0.029734 -0.425753 -0.245148 0 127 127
-0.046612 -0.233658 -0.316747 0 0 255
-0.019434 0.413176 0.248674 0 255 0
0.161059 0.373870 0.229799 127 127 0
0.024475 0.430645 0.136556 76 0 153
0.032382 0.539701 0.201712 76 0 153
-0.003285 0.271719 0.063090 127 127 0
-0.091343 0.539860 0.146667 0 0 255
0.019960 -0.868233 -0.212111 153 0 76
-0.018369 -0.900349 -0.114743 153 0 76
0.012566 0.423301 -0.030785 127 0 127
0.036155 0.467864 0.265570 127 127 0
0.001758 -0.518167 -0.245706 153 0 76
-0.108372 0.387354 0.386144 127 127 0
-0.012088 -0.921500 -0.166562 153 0 76
0.008559 -0.466671 -0.283564 153 0 76
-0.063455 -0.564288 -0.202002 76 0 153
0.097245 0.455380 0.136040 127 127 0
-0.096973 0.367182 0.404018 127 127 0
0.024552 0.433694 0.072206 76 0 153
-0.090317 0.413623 0.129788 127 127 0
0.029357 -0.557914 -0.189754 127 127 0
0.086819 0.505271 0.085985 0 0 255
-0.020406 -0.766457 -0.204953 153 0 76
0.135520 -0.921500 -0.048760 153 0 76
0.008664 -0.047536 -0.475086 153 0 76
0.024081 0.322425 0.148341 0 255 0
0.098539 0.475194 0.135860 127 127 0
0.132960 0.364560 0.164967 127 127 0
0.027833 0.412210 0.113220 127 127 0
0.141501 -0.921500 -0.155049 153 0 76
0.031264 -0.235262 -0.343578 204 51 127
-0.020313 0.423559 0.132877 0 255 0
0.067708 -0.900349 -0.113773 153 0 76
0.066117 -0.412876 -0.251548 0 127 127
0.000848 0.046568 -0.548412 255 0 0
-0.067694 0.455381 0.258997 127 127 0
0.051572 -0.261399 -0.325131 204 51 127
-0.031319 0.390908 0.097061 76 0 153
0.040799 -0.496365 -0.213628 204 51 127
0.037719 -0.700509 -0.222127 127 127 0
-0.004889 0.453015 0.322032 127 127 0
0.059743 0.453059 0.267831 127 127 0
-0.130009 0.351677 0.144156 127 127 0
0.031843 0.609839 0.067968 0 0 255
-0.008938 0.079234 -0.472114 0 0 255
-0.031442 0.523435 0.059420 0 0 255
0.040468 -0.674328 -0.198754 153 0 76
-0.121798 -0.900349 -0.147755 153 0 76
0.036906 -0.258778 -0.305407 204 51 127
0.112993 -0.921500 -0.317854 153 0 76
-0.034830 0.509110 0.139493 0 255 0
-0.007154 0.248640 -0.327140 204 51 127
-0.140881 -0.921500 -0.324552 153 0 76
0.096378 0.461432 0.181845 127 127 0
0.040848 -0.114053 -0.393765 204 51 127
0.120049 -0.921500 -0.131829 153 0 76
0.055913 -0.921500 -0.320091 153 0 76
0.038570 0.208612 0.077532 127 127 0
0.089997 0.432099 0.122954 127 127 0
-0.076132 -0.900349 -0.049061 153 0 76
0.000474 0.497554 0.234425 76 0 153
-0.046996 0.287903 0.195857 0 255 0
-0.186077 0.329427 0.295703 127 127 0
0.171244 -0.916099 -0.117876 153 0 76
-0.028585 0.456667 0.292786 127 127 0
0.164399 0.198768 0.182505 127 127 0
0.044846 0.605384 0.075111 0 0 255
0.152376 -0.921500 -0.183422 153 0 76
0.111425 -0.921500 -0.363700 153 0 76
0.085179 0.247284 0.086334 127 127 0
-0.042099 -0.260605 -0.304601 0 0 255
0.021630 0.349299 0.143640 0 255 0
-0.100268 0.441023 0.163658 127 127 0
0.012570 -0.658789 -0.211359 153 76 0
0.035598 0.550569 0.117108 0 255 0
0.045082 0.432139 -0.028719 127 0 127
-0.044127 0.604964 0.068328 0 0 255
0.117091 0.203715 0.125477 127 127 0
-0.040981 -0.581339 -0.218988 127 127 0
-0.006887 0.384485 0.131533 76 0 153
-0.170607 0.228941 0.175436 127 127 0
-0.007183 0.349579 -0.178251 204 51 127
-0.100258 0.490211 0.090055 127 0 127
0.059697 0.524746 0.208467 127 127 0
-0.050043 -0.426968 -0.227831 0 0 255
0.038421 -0.136374 -0.360605 204 51 127
0.086240 0.462685 0.094819 127 127 0
0.026443 -0.604644 -0.202729 127 127 0
-0.057098 -0.618828 -0.208426 76 0 153
0.118912 0.410827 0.335435 127 127 0
-0.001280 0.560552 0.165158 0 0 255
0.026344 0.464746 0.276333 127 127 0
-0.050742 0.532100 0.214120 127 127 0
0.047436 -0.236396 -0.343271 204 51 127
0.092944 0.529860 0.137341 0 0 255
0.010155 0.476717 0.036033 0 0 255
0.003349 -0.282903 -0.377823 153 0 76
0.072070 0.503634 0.081885 0 0 255
-0.070384 0.443403 0.311743 127 127 0
-0.006512 0.095178 -0.551034 153 0 76
0.171244 -0.913290 -0.288370 153 0 76
-0.041230 0.383337 0.156115 0 255 0
-0.067587 0.438253 0.158328 127 127 0
-0.040794 -0.635709 -0.221211 127 127 0
-0.062519 0.445900 0.070886 127 127 0
-0.053809 0.581181 0.113991 0 0 255
-0.066601 -0.493267 -0.200306 0 0 255
-0.011383 0.415498 0.079322 76 0 153
0.026467 -0.720451 -0.220793 127 127 0
-0.012596 0.437615 0.157223 127 127 0
-0.171656 -0.902701 -0.301170 153 0 76
-0.048692 -0.900349 -0.064420 153 0 76
-0.071118 0.360575 0.420190 127 127 0
-0.062949 -0.656536 -0.188406 76 0 153
-0.060497 -0.921500 -0.306022 153 0 76
0.088795 0.512529 0.108465 0 255 0
0.061594 -0.482269 -0.224588 204 51 127
0.180542 0.288196 0.337391 127 127 0
0.027379 -0.900349 -0.307993 153 0 76
-0.040944 -0.759184 -0.205177 127 127 0
0.064229 -0.698921 -0.201340 153 0 76
-0.036595 0.452091 0.050548 0 0 255
-0.049810 0.380568 0.422528 127 127 0
-0.034637 -0.900349 -0.177752 153 0 76
0.172777 0.219366 0.183287 127 127 0
-0.013865 -0.496951 -0.216386 127 0 127
-0.110523 0.424900 0.243965 127 127 0
0.041540 -0.921500 -0.080822 153 0 76
-0.197309 0.304614 0.266700 127 127 0
-0.173000 0.359550 0.224905 127 127 0
0.123549 -0.900349 -0.162006 153 0 76
0.044405 0.454886 0.255686 76 0 153
-0.048416 0.316458 0.084248 127 127 0
0.012697 0.405274 0.137825 0 255 0
0.036168 -0.086608 -0.383046 204 51 127
0.010229 -0.900349 -0.268261 153 0 76
-0.051330 0.600261 0.103224 0 0 255
0.065947 0.433927 0.350247 127 127 0
-0.023483 -0.900349 -0.065283 153 0 76
-0.059109 0.231520 0.077806 127 127 0
0.002087 0.400603 0.416314 127 127 0
-0.096761 0.348699 0.414790 127 127 0
-0.004584 0.591905 0.038352 0 0 255
-0.054621 -0.567942 -0.179135 76 0 153
-0.111988 0.270569 0.099279 127 127 0
0.075054 0.501662 0.181559 76 0 153
-0.011127 -0.749218 -0.189754 153 0 76
0.059483 0.393992 0.231577 0 255 0
0.063333 0.509840 0.092633 0 0 255
0.053102 -0.727480 -0.210176 153 0 76
-0.005497 -0.362935 -0.337599 153 0 76
0.071336 0.365866 0.415735 127 127 0
0.060601 0.258246 0.072938 127 127 0
0.055034 -0.340240 -0.296440 204 51 127
-0.032627 -0.921500 -0.163446 153 0 76
-0.022493 -0.106876 -0.387895 0 0 255
0.045033 -0.572698 -0.196912 153 0 76
-0.098501 -0.900349 -0.075518 153 0 76
-0.034262 0.277256 0.198985 0 255 0
0.123598 -0.921500 -0.236629 153 0 76
0.012684 0.021771 -0.446525 204 51 127
-0.027827 0.520632 0.216162 76 0 153
0.147652 -0.900349 -0.245928 153 0 76
0.153180 0.381012 0.320300 127 127 0
0.013971 0.492089 0.061888 0 0 255
-0.032161 0.483791 0.047516 0 0 255
-0.117625 -0.914032 -0.377859 153 0 76
-0.007149 0.220855 -0.382613 204 51 127
0.072029 0.459884 0.098401 76 0 153
-0.023338 0.059052 -0.476460 0 0 255
0.161270 -0.921500 -0.261277 153 0 76
-0.061508 -0.900349 -0.336744 153 0 76
-0.001833 -0.077129 -0.453132 153 0 76
-0.067495 0.444461 0.096414 76 0 153
0.006223 0.322937 -0.219282 204 51 127
0.077048 0.418069 0.106569 127 127 0
0.057378 -0.900349 -0.226092 153 0 76
-0.133316 0.413184 0.258528 127 127 0
0.109430 -0.921500 -0.177499 153 0 76
0.022507 0.509709 0.064085 0 0 255
-0.037554 -0.573979 -0.189754 76 0 153
-0.076781 -0.919585 -0.035042 153 0 76
0.119413 0.397251 0.362619 127 127 0
0.078117 0.341587 0.221758 0 255 0
-0.020098 0.548229 0.039393 0 0 255
0.044059 -0.404549 -0.239012 0 127 127
0.149737 0.204341 0.162128 127 127 0
-0.111378 -0.921500 -0.139641 153 0 76
-0.026573 -0.685363 -0.194660 127 127 0
-0.050961 -0.621619 -0.184289 76 0 153
0.058914 -0.921500 -0.276776 153 0 76
-0.103872 0.548066 0.137751 0 255 0
0.052400 0.288684 0.225041 0 255 0
-0.171656 -0.904074 -0.344057 153 0 76
0.188471 0.282787 0.196642 127 127 0
-0.090024 -0.900349 -0.234045 153 0 76
0.008612 -0.253751 -0.382931 153 0 76
0.193933 0.252881 0.241273 127 127 0
-0.065238 0.304621 0.198206 0 255 0
0.008555 -0.482220 -0.275920 153 0 76
-0.016859 0.518357 0.147622 0 255 0
0.008650 -0.104681 -0.459045 153 0 76
0.016115 -0.745521 -0.192752 153 0 76
-0.080579 0.436080 0.331317 127 127 0
0.140518 0.401528 0.256559 127 127 0
-0.031792 -0.776689 -0.222127 127 127 0
-0.031687 -0.234338 -0.332435 0 0 255
-0.056151 -0.371605 -0.254569 0 0 255
-0.082603 0.532629 0.132106 0 0 255
-0.100218 -0.921500 -0.363139 153 0 76
0.096589 0.535575 0.120681 127 0 127
0.036985 0.554111 0.201681 0 0 255
-0.006837 0.127199 -0.552066 204 51 127
0.035361 -0.285913 -0.294079 204 51 127
-0.040968 -0.642918 -0.208096 127 127 0
0.053854 0.590853 0.076449 0 0 255
-0.010260 0.544816 0.206050 76 0 153
-0.069432 0.433215 0.357569 127 127 0
-0.030739 0.365332 0.088887 127 127 0
0.075640 0.487191 0.188536 76 0 153
0.000480 -0.570376 -0.244107 153 76 0
-0.012049 0.077082 -0.456804 0 0 255
-0.048714 0.427950 0.140483 127 127 0
-0.053959 0.275197 0.070701 127 127 0
0.098867 0.399217 0.377574 127 127 0
-0.091986 0.333518 0.108153 127 127 0
0.064157 0.459069 0.247979 127 127 0
0.005696 0.376392 0.084123 127 127 0
-0.011221 0.289729 0.268963 0 255 0
-0.063098 0.483600 0.213545 76 0 153
-0.010918 0.546424 0.141387 0 255 0
0.080035 0.407866 0.180043 76 0 153
0.030935 -0.779048 -0.222127 127 127 0
-0.002461 0.522015 0.050713 0 0 255
0.030889 0.254054 0.068766 127 127 0
-0.079688 0.437166 0.121189 76 0 153
0.014508 -0.627210 -0.217249 153 76 0
-0.067937 -0.908229 -0.034958 153 0 76
0.019994 -0.793063 -0.206027 153 0 76
0.157703 -0.900349 -0.134563 153 0 76
0.138359 -0.921500 -0.123183 153 0 76
-0.051172 0.512912 0.108190 0 255 0
-0.005857 -0.243209 -0.397772 153 0 76
-0.124089 0.202571 0.129941 127 127 0
-0.002860 -0.443074 -0.281528 0 127 127
-0.026978 -0.550429 -0.190513 127 127 0
-0.146113 -0.900349 -0.219638 153 0 76
0.115596 0.375763 0.385426 127 127 0
-0.050976 -0.712299 -0.212251 76 0 153
0.027887 -0.772731 -0.189754 127 127 0
-0.007162 0.279317 -0.275810 204 51 127
-0.025741 -0.900349 -0.230231 153 0 76
0.053652 0.451700 0.181619 127 127 0
0.011168 0.376327 0.430438 127 127 0
0.030482 0.516302 0.231634 127 127 0
0.092630 0.548729 0.137969 0 255 0
-0.077192 -0.900349 -0.303289 153 0 76
0.052523 -0.900712 -0.376232 153 0 76
-0.017123 0.612220 0.065159 0 0 255
0.069817 0.544274 0.152276 0 0 255
0.109040 -0.921500 -0.343033 153 0 76
-0.024178 0.382712 0.425186 127 127 0
-0.035633 0.364582 0.104140 76 0 153
0.105406 0.418677 0.194425 127 127 0
0.063533 0.445654 0.171146 127 127 0
-0.046935 -0.513545 -0.206950 0 0 255
-0.003412 -0.389053 -0.324473 153 0 76
-0.058103 0.316525 0.260087 0 255 0
0.006113 0.318098 0.076998 127 127 0
0.037125 -0.311007 -0.309619 204 51 127
0.085600 0.487212 0.090985 0 0 255
0.049008 0.535021 0.193949 76 0 153
0.057602 -0.427251 -0.255971 204 51 127
0.040649 0.613370 0.092263 0 0 255
-0.057282 0.211370 0.084309 127 127 0
0.113208 -0.900349 -0.089499 153 0 76
-0.089390 0.442610 0.257999 127 127 0
-0.044871 0.461736 0.064446 76 0 153
-0.073281 0.335619 0.195573 0 255 0
0.084067 0.430298 0.110053 127 127 0
0.030900 -0.921500 -0.240428 153 0 76
0.185988 0.251666 0.201457 127 127 0
0.006198 0.420601 -0.055921 204 51 127
-0.032772 0.366941 0.283967 0 255 0
0.094918 -0.900349 -0.109948 153 0 76
-0.039395 0.169587 0.102289 127 127 0
-0.024307 -0.900349 -0.156672 153 0 76
-0.091117 0.431911 0.191264 76 0 153
-0.089040 0.473008 0.140056 76 0 153
-0.037824 0.507048 0.234762 127 127 0
-0.007170 0.311908 -0.217546 204 51 127
0.066717 -0.921500 -0.113686 153 0 76
-0.014346 -0.533765 -0.233477 153 0 76
0.089543 -0.921500 -0.062868 153 0 76
0.006219 0.341439 -0.184649 204 51 127
0.139652 0.384666 0.353226 127 127 0
-0.001994 0.413945 0.116226 127 127 0
-0.055377 -0.406457 -0.238103 0 127 127
-0.008438 0.311656 0.074653 127 127 0
0.070792 0.437043 0.086217 127 127 0
0.016432 -0.034462 -0.432805 204 51 127
0.174388 0.242989 0.174137 127 127 0
-0.048316 -0.204424 -0.337533 0 0 255
0.033657 0.302427 0.162202 0 255 0
-0.108441 -0.900349 -0.175978 153 0 76
0.125379 0.271387 0.109573 127 127 0
0.062352 0.397119 0.116526 76 0 153
-0.038017 -0.319237 -0.288341 0 0 255
-0.112944 0.244647 0.098306 127 127 0
-0.044291 0.292662 0.181428 0 255 0
0.026453 -0.651744 -0.191216 127 127 0
-0.053813 0.372962 0.119587 76 0 153
-0.045728 -0.196647 -0.361142 0 0 255
-0.009569 0.287632 0.167236 0 255 0
-0.116310 0.340202 0.124770 127 127 0
0.138549 0.369142 0.178245 127 127 0
-0.130644 -0.900349 -0.118463 153 0 76
-0.040996 -0.503895 -0.220302 127 127 0
-0.005639 0.444997 0.046941 127 127 0
-0.005042 0.509970 0.058057 0 0 255
0.008498 -0.409771 -0.313128 153 0 76
-0.043337 -0.422043 -0.247047 0 0 255
-0.007680 -0.342672 -0.319436 153 0 76
-0.059564 0.310660 0.182863 0 255 0
-0.153303 -0.921500 -0.295808 153 0 76
-0.042693 0.401050 0.082933 127 127 0
0.059918 -0.611233 -0.204650 153 0 76
0.150028 -0.921500 -0.325308 153 0 76
-0.025857 0.560183 0.204622 0 0 255
0.071896 -0.900349 -0.324711 153 0 76
-0.010860 -0.813349 -0.189197 153 0 76
-0.035837 -0.900349 -0.285777 153 0 76
-0.156112 0.338271 0.165340 127 127 0
0.011868 0.417569 0.243672 0 255 0
-0.110875 0.427130 0.292943 127 127 0
0.069853 0.430580 0.145038 127 127 0
0.070487 -0.921500 -0.203627 153 0 76
0.026662 -0.671521 -0.221273 127 127 0
-0.040958 -0.693851 -0.220924 127 127 0
0.065782 -0.636157 -0.197482 153 0 76
0.146564 0.242316 0.137953 127 127 0
0.061611 0.476752 0.225010 127 127 0
-0.190529 0.256018 0.219061 127 127 0
0.149537 -0.921500 -0.137279 153 0 76
-0.082588 -0.921500 -0.092391 153 0 76
0.040819 -0.592685 -0.208574 127 127 0
0.011252 0.043168 -0.451858 204 51 127
-0.047791 -0.921500 -0.056238 153 0 76
-0.156923 -0.900349 -0.315455 153 0 76
-0.007194 0.391162 -0.113774 204 51 127
-0.027552 0.470497 0.248027 76 0 153
0.179069 0.356771 0.245023 127 127 0
-0.062653 0.382353 0.246794 0 255 0
0.044449 0.348273 0.092695 127 127 0
0.044493 -0.575583 -0.183075 153 0 76
0.094845 -0.913294 -0.034958 153 0 76
0.008602 -0.292075 -0.360741 153 0 76
0.028703 -0.046724 -0.401029 204 51 127
0.055353 -0.366231 -0.256958 204 51 127
-0.169275 0.376702 0.299043 127 127 0
-0.051154 -0.682807 -0.188235 76 0 153
0.087944 0.469335 0.201985 127 127 0
-0.052048 -0.900349 -0.219311 153 0 76
0.148983 0.399130 0.271245 127 127 0
0.087628 0.400857 0.127592 127 127 0
-0.048696 0.381214 0.133881 76 0 153
0.171244 -0.909119 -0.051596 153 0 76
0.002897 0.032971 -0.523160 255 0 0
-0.031852 0.274531 0.066451 127 127 0
-0.172004 0.361530 0.323011 127 127 0
-0.006485 -0.641395 -0.228431 153 76 0
-0.007192 0.382358 -0.127843 204 51 127
0.097708 0.187013 0.112649 127 127 0
-0.065819 -0.921500 -0.129718 153 0 76
0.041465 -0.900349 -0.256726 153 0 76
0.165643 -0.921500 -0.310506 153 0 76
0.113104 0.251349 0.099468 127 127 0
-0.007140 0.187945 -0.439564 204 51 127
-0.185681 0.250371 0.193794 127 127 0
-0.079578 -0.921500 -0.221423 153 0 76
-0.026590 -0.604026 -0.198611 127 127 0
-0.076971 0.417710 0.197094 76 0 153
-0.087526 0.508785 0.090807 0 0 255
-0.085708 0.488225 0.167449 76 0 153
0.193268 0.313613 0.265865 127 127 0
0.094565 0.444304 0.206348 127 127 0
-0.028781 -0.917525 -0.034958 153 0 76
-0.040267 -0.782644 -0.190730 127 127 0
0.006802 0.102405 -0.482995 204 51 127
0.023604 0.399426 0.144563 0 255 0
0.006251 0.217756 -0.388880 204 51 127
-0.019732 0.386079 0.142334 0 255 0
-0.083801 0.197966 0.103056 127 127 0
-0.083009 -0.921500 -0.140629 153 0 76
0.149506 -0.921500 -0.216662 153 0 76
-0.024429 -0.126736 -0.365385 0 0 255
0.051932 0.449973 0.309842 127 127 0
-0.138978 -0.900349 -0.302411 153 0 76
0.041309 -0.372995 -0.267052 204 51 127
-0.095559 0.482783 0.029318 127 0 127
-0.192553 0.285189 0.290399 127 127 0
-0.156678 0.374925 0.337726 127 127 0
-0.066361 0.327346 0.179144 0 255 0
-0.171656 -0.916524 -0.182854 153 0 76
-0.106394 0.405378 0.370345 127 127 0
-0.079086 -0.921500 -0.154338 153 0 76
0.159128 -0.900349 -0.073902 153 0 76
-0.112605 -0.900349 -0.366187 153 0 76
-0.072453 0.331860 0.098008 127 127 0
0.061834 0.419825 0.087739 127 127 0
-0.040417 -0.705680 -0.190294 127 127 0
-0.049169 -0.415110 -0.262095 0 127 127
-0.049584 0.490197 0.221722 76 0 153
0.002795 0.549289 0.218685 127 127 0
0.042295 0.457193 0.284998 127 127 0
0.023526 -0.131836 -0.387200 204 51 127
0.040830 -0.648286 -0.220207 127 127 0
-0.041897 -0.374762 -0.268263 0 0 255
0.012503 -0.701322 -0.207981 153 76 0
0.015133 -0.921500 -0.170836 153 0 76
0.158828 -0.921500 -0.070134 153 0 76
-0.122560 -0.900349 -0.059899 153 0 76
0.011126 -0.900349 -0.320957 153 0 76
0.054483 0.313413 0.174530 0 255 0
-0.087770 -0.900349 -0.336925 153 0 76
-0.000543 0.625944 0.036984 153 0 76
0.062520 0.382655 0.136378 76 0 153
-0.044173 -0.921500 -0.110725 153 0 76
0.006452 0.126309 -0.479519 204 51 127
-0.166173 0.383280 0.272453 127 127 0
0.001295 -0.900349 -0.346927 153 0 76
0.009815 0.266710 0.066744 127 127 0
-0.158778 -0.900349 -0.070142 153 0 76
-0.005006 0.065823 -0.578571 255 0 0
-0.079472 -0.900349 -0.275062 153 0 76
-0.049144 -0.455499 -0.213543 0 0 255
-0.140058 0.281288 0.118018 127 127 0
-0.019384 -0.814854 -0.213788 153 0 76
-0.076244 -0.900349 -0.317348 153 0 76
0.171244 -0.918112 -0.233551 153 0 76
-0.042908 -0.277832 -0.324600 0 0 255
0.084443 0.512997 0.184427 127 127 0
0.007869 -0.231394 -0.403594 153 0 76
0.008609 -0.262126 -0.363176 153 0 76
-0.004830 0.384839 0.422533 127 127 0
-0.105317 0.297921 0.097339 127 127 0
0.089166 0.176203 0.114804 127 127 0
0.166539 -0.921500 -0.040888 153 0 76
-0.069823 0.406099 0.390767 127 127 0
-0.027479 -0.660842 -0.222067 127 127 0
-0.035840 0.439492 0.057461 127 127 0
-0.180755 0.333240 0.322168 127 127 0
0.012326 -0.560632 -0.239028 153 76 0
-0.155158 -0.900349 -0.368837 153 0 76
0.033076 -0.001965 -0.431978 204 51 127
0.035839 -0.052736 -0.425453 204 51 127
0.040835 -0.669705 -0.218894 127 127 0
-0.034190 -0.008840 -0.422686 0 0 255
0.065809 -0.921500 -0.141490 153 0 76
0.140285 -0.920274 -0.035726 153 0 76
-0.055775 -0.318180 -0.304954 0 0 255
-0.013402 -0.921500 -0.251294 153 0 76
-0.185316 0.342289 0.248992 127 127 0
0.090628 0.323269 0.101286 127 127 0
0.000633 -0.164319 -0.437530 153 0 76
-0.064479 -0.582607 -0.183607 76 0 153
0.104112 -0.900349 -0.357496 153 0 76
0.054836 -0.389357 -0.246529 204 51 127
0.090714 0.401962 0.157680 76 0 153
0.043290 0.325519 0.087202 127 127 0
-0.003802 0.457063 0.300220 127 127 0
0.026413 0.029883 -0.463357 204 51 127
0.062211 0.301491 0.220752 0 255 0
-0.090316 -0.900349 -0.046368 153 0 76
0.006107 0.484360 0.241669 76 0 153
0.134573 -0.900349 -0.115763 153 0 76
0.006070 -0.428686 -0.304555 153 0 76
0.093558 -0.921500 -0.171327 153 0 76
0.093892 -0.900349 -0.261228 153 0 76
0.026722 -0.483770 -0.199367 127 0 127
-0.084388 0.465378 0.086210 127 127 0
-0.023457 0.439157 0.205021 0 255 0
-0.052134 0.446995 0.331232 127 127 0
0.018275 0.619545 0.079932 0 0 255
0.069044 0.329990 0.186634 0 255 0
-0.009860 0.369452 0.289432 0 255 0
0.099301 0.351552 0.414826 127 127 0
-0.099334 0.225576 0.092729 127 127 0
0.011975 -0.889627 -0.190084 153 0 76
-0.009576 0.361868 0.439440 127 127 0
-0.182061 0.225864 0.197852 127 127 0
-0.014841 0.479727 0.230164 127 127 0
0.058343 -0.921500 -0.041780 153 0 76
-0.027883 -0.749254 -0.222127 127 127 0
-0.032571 0.009314 -0.441869 0 0 255
0.049269 -0.425737 -0.243725 0 127 127
-0.119680 -0.900349 -0.079849 153 0 76
-0.031936 0.277596 0.240535 0 255 0
-0.056997 0.542426 0.149075 0 0 255
0.005024 0.258834 -0.336282 204 51 127
-0.027605 0.495448 0.230808 76 0 153
-0.188147 0.285210 0.332304 127 127 0
-0.101820 0.415024 0.152879 127 127 0
-0.070326 0.358173 0.107694 127 127 0
-0.166521 0.344262 0.339477 127 127 0
-0.028974 0.304752 0.157753 0 255 0
0.173317 0.309015 0.349805 127 127 0
-0.071339 0.496650 0.194113 76 0 153
-0.055440 -0.517900 -0.195563 76 0 153
-0.054671 -0.921500 -0.224221 153 0 76
0.026447 -0.624383 -0.195251 127 127 0
0.014068 -0.921500 -0.199751 153 0 76
-0.115981 -0.900349 -0.291883 153 0 76
-0.159705 -0.921500 -0.053218 153 0 76
0.094830 0.510847 0.131402 0 0 255
-0.073534 0.528321 0.150020 0 255 0
0.186598 0.238041 0.222358 127 127 0
-0.059156 -0.391135 -0.273523 0 0 255
0.065547 -0.589006 -0.188417 153 0 76
-0.012562 -0.422335 -0.239009 0 127 127
0.022366 0.454182 0.317794 127 127 0
0.003708 -0.900349 -0.046483 153 0 76
0.113198 0.391958 0.164831 127 127 0
-0.013149 0.456963 0.265082 76 0 153
-0.007146 0.206050 -0.417510 204 51 127
0.160183 -0.900349 -0.348329 153 0 76
-0.171656 -0.911271 -0.236142 153 0 76
0.008615 -0.238343 -0.377267 153 0 76
0.087348 0.429983 0.162362 76 0 153
-0.126599 0.403425 0.205302 127 127 0
-0.007869 -0.057645 -0.491323 153 0 76
0.026839 -0.513583 -0.221435 127 127 0
-0.020240 0.621664 0.084171 0 0 255
0.034472 0.508821 0.218539 76 0 153
0.029107 -0.425741 -0.247427 0 127 127
0.031898 0.013307 -0.441488 204 51 127
-0.094043 0.427388 0.129392 127 127 0
-0.143631 0.220757 0.139403 127 127 0
-0.041565 -0.908471 -0.034958 153 0 76
-0.039750 -0.722965 -0.222127 127 127 0
-0.041984 -0.292407 -0.290267 0 0 255
-0.100234 0.500444 0.076862 127 0 127
-0.007011 0.365172 -0.124558 204 51 127
-0.125188 0.389401 0.178046 127 127 0
0.026427 -0.525322 -0.201789 127 127 0
-0.176672 0.245799 0.171658 127 127 0
-0.026609 -0.507346 -0.219700 127 127 0
-0.049650 -0.900349 -0.122305 153 0 76
-0.075050 0.445103 -0.008578 127 0 127
0.030163 0.566179 0.149879 0 0 255
0.054911 0.418784 0.124606 127 127 0
-0.001085 0.466028 0.276042 127 127 0
-0.073406 0.364877 0.229718 0 255 0
-0.144809 0.303924 0.132482 127 127 0
-0.003724 0.514959 0.013385 153 0 76
0.054668 0.398126 0.185864 0 255 0
-0.049575 0.370407 0.098108 127 127 0
-0.183427 0.311718 0.327625 127 127 0
-0.025977 0.468618 0.271449 127 127 0
-0.037449 0.439750 0.181152 0 255 0
0.066514 0.528655 0.178813 76 0 153
0.065556 0.426284 0.372283 127 127 0
-0.029136 -0.774332 -0.189754 127 127 0
0.043944 -0.150773 -0.361765 204 51 127
-0.040733 -0.921500 -0.274893 153 0 76
-0.042013 -0.119244 -0.380032 0 0 255
-0.035248 -0.143731 -0.385051 0 0 255
0.081832 -0.900349 -0.188633 153 0 76
0.016178 0.072245 -0.454671 204 51 127
0.054934 -0.615444 -0.182535 153 0 76
0.003617 0.529851 0.149746 0 255 0
0.079122 -0.921500 -0.279313 153 0 76
0.111901 0.337283 0.413765 127 127 0
0.013928 -0.921500 -0.154890 153 0 76
-0.162529 -0.921500 -0.072015 153 0 76
0.167148 0.353192 0.203561 127 127 0
0.064305 0.557376 0.179722 0 0 255
0.060868 -0.921500 -0.192269 153 0 76
0.046065 0.383944 0.138610 76 0 153
-0.004695 -0.921500 -0.150931 153 0 76
0.036904 0.432406 0.063358 127 127 0
-0.144080 0.198655 0.152839 127 127 0
-0.009995 -0.410064 -0.302425 153 0 76
-0.043923 0.477387 0.234329 76 0 153
0.032206 0.460464 0.131755 0 255 0
-0.012611 -0.900349 -0.257533 153 0 76
0.000794 0.402604 0.096582 127 127 0
0.046391 -0.514108 -0.189991 204 51 127
0.079071 0.477923 0.212747 127 127 0
0.016364 0.442575 0.050398 127 127 0
-0.085524 -0.921500 -0.112305 153 0 76
-0.017650 0.559244 0.178205 0 0 255
0.062355 0.304845 0.195576 0 255 0
0.063880 0.202123 0.092588 127 127 0
0.064020 0.244532 0.074968 127 127 0
0.011923 -0.567793 -0.222981 153 76 0
-0.177419 0.368755 0.274384 127 127 0
-0.049811 0.505521 0.120707 0 255 0
0.197275 0.261598 0.265561 127 127 0
-0.078953 -0.900349 -0.181821 153 0 76
0.043401 -0.539279 -0.184880 204 51 127
-0.078854 0.368334 0.412013 127 127 0
0.002082 0.339760 0.138981 0 255 0
-0.031303 0.438644 0.071283 76 0 153
-0.010751 0.486527 0.255446 127 127 0
0.049705 -0.295530 -0.288838 204 51 127
0.000846 -0.538668 -0.245586 153 76 0
0.066145 -0.921500 -0.069953 153 0 76
-0.007137 0.184949 -0.426239 204 51 127
0.025566 0.432166 0.210038 0 255 0
-0.043659 0.409045 0.167830 0 255 0
0.103628 0.431297 0.242330 127 127 0
0.051810 0.420066 0.174456 76 0 153
0.007770 0.431083 0.127114 0 255 0
-0.048171 0.297475 0.077527 127 127 0
0.108092 0.426582 0.274739 127 127 0
0.026455 -0.664132 -0.202378 127 127 0
-0.006358 0.242890 0.063126 127 127 0
-0.107561 0.371494 0.141634 127 127 0
0.084860 0.452837 0.178094 76 0 153
-0.006665 -0.504530 -0.239816 153 0 76
0.106897 0.404470 0.367776 127 127 0
0.016232 0.549701 0.216388 0 0 255
0.027494 -0.687475 -0.189754 127 127 0
-0.005612 -0.388139 -0.296586 153 0 76
-0.059694 0.557339 0.174904 0 0 255
-0.008846 0.440440 -0.040889 127 0 127
0.100867 0.552367 0.126104 0 255 0
-0.006682 0.112780 -0.576007 204 51 127
0.069718 0.343699 0.245878 0 255 0
-0.009252 0.525936 0.231594 127 127 0
0.010631 -0.582373 -0.221075 153 76 0
0.047537 0.412210 0.210964 0 255 0
-0.091630 0.403780 0.172966 76 0 153
0.140257 0.407927 0.282513 127 127 0
0.009741 -0.757178 -0.189754 127 127 0
0.099517 0.503779 0.104651 127 0 127
0.059115 0.441597 0.331489 127 127 0
0.072452 0.447673 0.274658 127 127 0
-0.048770 -0.344005 -0.267010 0 0 255
-0.016228 0.544621 0.219737 127 127 0
0.017295 0.304313 0.075300 127 127 0
-0.101423 0.448833 0.152579 127 127 0
0.104790 0.384325 0.147248 127 127 0
0.081592 0.547687 0.160157 0 0 255
-0.000923 0.446142 0.246339 76 0 153
0.109135 0.370462 0.145938 127 127 0
-0.039329 -0.338232 -0.281999 0 0 255
-0.138224 0.396821 0.333234 127 127 0
-0.030169 -0.555568 -0.222127 127 127 0
-0.029211 -0.199319 -0.346087 0 0 255
0.030739 0.430312 0.382546 127 127 0
0.171244 -0.916466 -0.361757 153 0 76
-0.034360 0.418380 0.226186 0 255 0
0.047362 -0.900349 -0.045377 153 0 76
-0.020553 0.445612 0.220069 76 0 153
0.069444 -0.921500 -0.316803 153 0 76
-0.142664 0.244654 0.127972 127 127 0
-0.089140 0.448738 0.166641 76 0 153
0.003221 0.159537 -0.553783 255 0 0
0.095005 -0.900349 -0.345401 153 0 76
0.006220 0.347534 -0.159035 204 51 127
-0.192470 0.315663 0.219587 127 127 0
-0.020824 0.465822 0.206080 127 127 0
0.036178 -0.094271 -0.407366 204 51 127
0.102726 0.427552 0.326817 127 127 0
0.006262 0.169759 -0.477268 204 51 127
0.049643 0.397113 0.156486 76 0 153
-0.033631 0.436624 0.223767 76 0 153
-0.000888 0.508319 0.113878 0 255 0
0.090845 0.465537 0.016067 127 0 127
0.005336 -0.409588 -0.285806 153 0 76
-0.011349 -0.921500 -0.311223 153 0 76
0.131110 0.338389 0.136105 127 127 0
0.045166 0.513915 0.107533 0 255 0
-0.008480 0.445158 0.061758 76 0 153
-0.159919 0.334396 0.355265 127 127 0
-0.002017 -0.316950 -0.360711 153 0 76
0.100718 0.264169 0.089943 127 127 0
0.073581 0.353772 0.426328 127 127 0
-0.011578 -0.711781 -0.200175 127 127 0
-0.064573 0.448655 0.284887 127 127 0
0.191118 0.283653 0.233337 127 127 0
0.096785 0.492722 0.114125 127 127 0
0.064087 -0.900349 -0.296059 153 0 76
-0.005058 0.622345 0.121286 0 0 255
0.188524 0.280836 0.304457 127 127 0
0.033158 0.283669 0.252095 0 255 0
-0.156222 -0.900349 -0.341098 153 0 76
0.008660 -0.064624 -0.475518 153 0 76
0.156239 -0.900349 -0.163012 153 0 76
-0.028803 -0.921500 -0.193091 153 0 76
-0.012359 0.118248 -0.490922 0 0 255
0.120375 0.409051 0.209705 127 127 0
-0.129070 -0.900349 -0.104599 153 0 76
-0.171656 -0.911381 -0.156069 153 0 76
0.049294 0.361572 0.097018 127 127 0
-0.010164 -0.599189 -0.232191 153 76 0
0.065204 0.426315 0.107522 76 0 153
0.076426 -0.921500 -0.151589 153 0 76
0.006234 0.291086 -0.253952 204 51 127
-0.020658 -0.800582 -0.189754 127 127 0
0.010743 0.452798 0.213130 76 0 153
0.020720 -0.012751 -0.416347 204 51 127
-0.042187 0.536949 0.148332 0 255 0
-0.013650 -0.915082 -0.034958 153 0 76
-0.103289 0.433542 0.234090 127 127 0
-0.062136 -0.475736 -0.215124 0 0 255
0.056009 0.354600 0.434256 127 127 0
0.017260 -0.900349 -0.346997 153 0 76
-0.067077 0.458492 0.087685 76 0 153
0.155417 -0.900349 -0.038579 153 0 76
-0.044933 0.417398 0.090075 76 0 153
0.191100 0.296874 0.212868 127 127 0
0.086962 -0.921500 -0.361979 153 0 76
-0.042565 0.439148 0.358273 127 127 0
-0.029808 0.556146 0.158002 0 0 255
-0.098893 0.436883 0.208430 127 127 0
-0.030542 0.488774 0.245833 127 127 0
0.109427 0.222044 0.104662 127 127 0
-0.097310 0.478877 0.108772 127 127 0
0.036491 -0.600852 -0.189754 127 127 0
0.105307 -0.913327 -0.377859 153 0 76
0.022816 -0.900349 -0.046964 153 0 76
0.028362 -0.024400 -0.411095 204 51 127
0.136455 0.397658 0.339133 127 127 0
0.007579 0.607477 0.056557 0 0 255
0.087015 0.453364 0.157353 76 0 153
0.027315 -0.563918 -0.221955 127 127 0
0.002745 0.484750 0.178859 0 255 0
0.057915 0.404711 0.396657 127 127 0
-0.071902 0.497456 0.071185 0 0 255
0.029586 -0.921500 -0.281038 153 0 76
0.028278 -0.616870 -0.222127 127 127 0
-0.108519 0.425190 0.330007 127 127 0
-0.030918 0.382248 0.085796 127 127 0
0.051547 -0.504371 -0.214277 127 0 127
-0.113792 -0.900349 -0.319967 153 0 76
0.006276 0.126777 -0.528416 204 51 127
-0.161520 0.281690 0.141099 127 127 0
-0.034053 -0.167989 -0.374116 0 0 255
-0.112450 0.213248 0.108636 127 127 0
-0.081769 0.522872 0.186816 127 127 0
0.019994 -0.824639 -0.202520 153 0 76
-0.080016 -0.900349 -0.364895 153 0 76
-0.113540 0.343529 0.409243 127 127 0
0.026259 -0.119981 -0.367994 204 51 127
0.006202 0.403412 -0.088283 204 51 127
0.066764 0.529010 0.125838 0 0 255
-0.099798 -0.900349 -0.358958 153 0 76
-0.011816 -0.845674 -0.189752 153 0 76
0.020642 -0.787666 -0.222127 127 127 0
0.011579 0.434237 0.068943 76 0 153
0.151176 -0.900349 -0.291594 153 0 76
0.176896 0.350368 0.230718 127 127 0
-0.094159 -0.900349 -0.274733 153 0 76
0.040046 -0.338497 -0.269460 204 51 127
0.064037 -0.658030 -0.208833 153 0 76
-0.073707 -0.921500 -0.334327 153 0 76
-0.035687 0.351047 0.092313 127 127 0
0.003659 -0.036582 -0.501945 153 0 76
-0.052944 0.363995 0.269690 0 255 0
-0.038744 -0.074625 -0.401182 0 0 255
0.039839 -0.538522 -0.222008 127 127 0
0.000828 0.437324 -0.005998 153 0 76
0.013148 -0.742217 -0.217682 153 0 76
-0.174561 0.324622 0.176589 127 127 0
0.069076 0.343614 0.100831 127 127 0
0.006270 0.142240 -0.515914 204 51 127
-0.159544 -0.900349 -0.195810 153 0 76
0.134502 -0.921500 -0.075434 153 0 76
-0.001555 -0.921500 -0.239103 153 0 76
-0.027792 -0.921500 -0.363150 153 0 76
0.008670 -0.024175 -0.485990 153 0 76
0.046974 -0.900349 -0.105126 153 0 76
0.073277 0.421470 0.129260 76 0 153
0.195137 0.239301 0.252786 127 127 0
-0.018431 -0.792013 -0.215405 153 0 76
-0.026608 -0.516308 -0.196586 127 127 0
0.043026 -0.437946 -0.237710 204 51 127
-0.069387 0.458811 0.222500 76 0 153
-0.062853 -0.557108 -0.183410 76 0 153
0.005426 -0.834316 -0.186284 153 0 76
0.124376 -0.900349 -0.324772 153 0 76
-0.074959 0.548945 0.137596 0 255 0
0.040702 0.422906 0.193387 0 255 0
-0.054125 0.425208 0.185689 76 0 153
-0.028018 -0.130597 -0.390972 0 0 255
0.006254 0.214260 -0.375938 204 51 127
-0.068230 0.427583 0.369727 127 127 0
-0.034844 -0.021948 -0.427669 0 0 255
0.040844 -0.712621 -0.192821 127 127 0
-0.013731 0.524387 0.217313 76 0 153
0.100674 -0.921500 -0.260852 153 0 76
-0.062646 0.439952 0.347088 127 127 0
-0.131988 0.260343 0.109845 127 127 0
0.059305 0.488016 0.055061 0 0 255
-0.093372 -0.921500 -0.299070 153 0 76
0.053589 -0.522568 -0.199271 153 0 76
0.062891 0.508953 0.195634 76 0 153
0.026460 -0.907643 -0.377859 153 0 76
0.059616 0.497038 0.224536 127 127 0
-0.016998 0.406367 0.262086 0 255 0
-0.008033 -0.509023 -0.264509 153 0 76
0.024566 -0.075895 -0.415651 204 51 127
-0.043348 -0.238603 -0.342283 0 0 255
0.047225 -0.900349 -0.180118 153 0 76
0.146404 -0.921500 -0.065424 153 0 76
-0.009930 -0.155501 -0.432404 153 0 76
-0.016394 0.515069 0.236774 127 127 0
-0.016360 0.261476 0.064276 127 127 0
-0.062090 0.420523 0.103222 76 0 153
-0.066436 0.460357 0.246321 127 127 0
-0.003017 -0.900349 -0.100840 153 0 76
0.048483 0.419508 0.076343 127 127 0
-0.029633 0.551465 0.121676 0 255 0
-0.055218 0.446848 0.173215 127 127 0
0.163877 -0.900349 -0.201932 153 0 76
0.061595 -0.450803 -0.229702 204 51 127
-0.085141 0.472566 0.210794 127 127 0
-0.069579 0.335508 0.248510 0 255 0
0.001023 -0.275788 -0.353052 153 0 76
0.005331 0.048618 -0.531651 153 0 76
-0.193037 0.273648 0.205154 127 127 0
0.062025 0.522336 0.114278 0 0 255
-0.009894 -0.013562 -0.500837 153 0 76
0.029229 0.325843 0.084109 127 127 0
0.006052 -0.681203 -0.222930 153 76 0
-0.132538 0.408528 0.329633 127 127 0
-0.028535 0.474656 0.038622 0 0 255
0.014354 -0.002006 -0.437774 204 51 127
-0.094791 0.455608 0.193796 127 127 0
0.055651 0.514443 0.218006 127 127 0
0.034583 0.442394 0.207878 76 0 153
0.044591 0.503689 0.232168 127 127 0
-0.042476 0.513101 0.075176 0 0 255
0.042556 -0.635242 -0.191982 153 0 76
0.018120 0.015757 -0.456983 204 51 127
-0.057199 0.567075 0.112699 0 0 255
-0.039329 0.378074 0.104022 76 0 153
-0.163989 -0.921500 -0.304473 153 0 76
0.055419 0.385002 0.113786 76 0 153
0.054971 -0.548500 -0.179545 153 0 76
-0.038912 0.551503 0.049842 0 0 255
0.014267 0.454604 0.260996 76 0 153
-0.065250 -0.668813 -0.194336 76 0 153
-0.031761 0.469529 0.212500 127 127 0
0.096692 -0.900349 -0.039095 153 0 76
-0.120571 -0.900349 -0.279217 153 0 76
0.037627 -0.900349 -0.204802 153 0 76
0.087531 0.357542 0.116236 127 127 0
0.046336 0.573403 0.054570 0 0 255
-0.020576 -0.900349 -0.299234 153 0 76
0.015765 0.461371 0.288910 127 127 0
0.111409 -0.921500 -0.086345 153 0 76
-0.079742 0.451445 0.211311 76 0 153
-0.029240 -0.044377 -0.402062 0 0 255
0.159742 -0.900349 -0.240657 153 0 76
-0.184420 0.346268 0.281950 127 127 0
0.119242 -0.903250 -0.377859 153 0 76
0.094318 0.436005 0.230535 127 127 0
-0.005999 -0.504392 -0.198007 127 0 127
-0.028264 0.238821 0.070042 127 127 0
-0.171656 -0.912258 -0.095302 153 0 76
-0.006517 0.076498 -0.541606 153 0 76
0.087159 0.434261 0.202113 76 0 153
0.046879 0.530300 0.215710 127 127 0
0.024852 0.393669 0.094235 76 0 153
0.061876 0.417276 0.196343 76 0 153
-0.037378 0.448480 0.163995 0 255 0
-0.006187 -0.460427 -0.288602 153 0 76
0.038809 0.410165 0.147474 76 0 153
0.122172 0.317774 0.118303 127 127 0
-0.107812 -0.921500 -0.286338 153 0 76
0.034619 -0.921500 -0.105062 153 0 76
-0.064530 0.395976 0.405835 127 127 0
-0.020943 -0.081195 -0.387804 0 0 255
0.099601 0.408897 0.150884 127 127 0
