ply
format ascii 1.0
element vertex 1258
property float x
property float y
property float z
property uchar red
property uchar green
property uchar blue
end_header
0.528946 -0.336169 0.066883 0 127 127
-0.252528 -0.357049 -0.264878 0 127 127
0.201085 0.473481 0.315938 76 153 0
-0.223971 0.473481 0.254462 76 153 0
-0.085698 0.421356 0.231702 76 153 0
0.064503 0.473481 -0.339092 76 153 0
0.076690 -0.304923 0.337573 0 127 127
0.441886 0.473481 0.104603 76 153 0
-0.123132 -0.611784 0.566374 0 255 0
0.152181 0.421356 -0.320379 76 153 0
-0.482321 -0.610118 -0.309712 204 51 127
0.302211 -0.357049 -0.205617 0 127 127
0.317887 -0.304923 0.190162 0 127 127
-0.516686 0.425718 0.010962 76 153 0
0.220046 -0.357049 0.423214 0 127 127
-0.460879 -0.492318 -0.284992 204 51 127
0.485598 -0.485624 -0.263787 76 0 153
0.193124 0.421356 -0.361298 76 153 0
-0.453390 0.421356 0.180541 76 153 0
0.207080 -0.357049 -0.449446 0 127 127
0.357568 -0.679035 -0.167599 127 0 127
-0.483412 -0.719297 -0.296945 0 0 255
0.399489 0.421356 0.156916 76 153 0
0.261450 -0.357049 0.051232 0 127 127
0.186638 0.422659 0.465352 76 153 0
-0.256019 0.473481 -0.404543 76 153 0
0.016400 -0.304923 0.005154 0 127 127
0.132426 -0.304923 -0.415096 0 127 127
0.502900 0.181923 -0.272689 76 0 153
0.484770 0.270118 -0.308051 76 0 153
0.003837 0.473481 0.462565 76 153 0
-0.102505 -0.304923 0.472902 0 127 127
-0.371377 -0.304923 -0.215390 0 127 127
-0.276315 -0.357049 -0.197246 0 127 127
0.061656 -0.357049 0.077131 0 127 127
-0.230115 -0.304923 -0.101394 0 127 127
-0.447908 0.473481 -0.200021 76 153 0
-0.479353 -0.357049 0.090576 0 127 127
0.445192 -0.681583 -0.286323 127 127 0
0.462876 0.473481 0.145983 76 153 0
-0.387326 -0.357049 -0.235462 0 127 127
-0.209472 -0.304923 0.045258 0 127 127
-0.567256 -0.665367 -0.355198 0 0 255
-0.425673 -0.357049 0.004998 0 127 127
-0.067897 -0.304923 0.379169 0 127 127
0.294357 -0.357049 -0.010710 0 127 127
-0.345791 0.473481 0.323798 76 153 0
-0.004973 -0.357049 -0.334441 0 127 127
-0.406863 0.421356 0.073737 76 153 0
-0.570766 -0.728070 -0.403260 0 0 255
0.158766 0.473481 0.278592 76 153 0
0.488627 0.247025 -0.256548 76 0 153
0.393780 -0.335094 0.360280 0 127 127
-0.026833 0.421356 -0.492027 76 153 0
0.112207 -0.342378 -0.518220 0 127 127
0.325268 0.421356 -0.069941 76 153 0
0.027819 -0.357049 0.050369 0 127 127
-0.005678 0.421356 0.343430 76 153 0
0.186793 0.421356 0.128953 76 153 0
-0.087797 0.421356 0.402755 76 153 0
-0.049429 0.473481 0.031116 76 153 0
0.042723 0.421356 0.202586 76 153 0
0.227295 0.449934 0.495600 76 153 0
-0.525162 -0.705750 -0.347758 0 0 255
-0.263900 -0.304923 0.460187 0 127 127
0.015116 0.473481 -0.401901 76 153 0
0.017064 -0.304923 -0.556204 0 127 127
-0.460279 -0.316642 -0.302154 0 127 127
0.207595 -0.357049 0.220483 0 127 127
-0.511640 0.452013 -0.225962 76 153 0
-0.023255 -0.357049 0.476766 0 127 127
0.410137 -0.304923 -0.191419 0 127 127
0.211156 0.446270 -0.503020 76 153 0
-0.290478 -0.357049 -0.059035 0 127 127
-0.170108 0.473481 -0.328192 76 153 0
-0.142361 -0.357049 0.226522 0 127 127
-0.186629 -0.304923 -0.123379 0 127 127
0.125572 -0.357049 -0.276983 0 127 127
0.162529 0.473481 0.347283 76 153 0
-0.423316 -0.304923 0.018552 0 127 127
0.474269 -0.304923 0.030933 0 127 127
-0.357886 -0.357049 -0.056470 0 127 127
0.416549 -0.353248 -0.292784 0 127 127
0.210576 0.421356 0.360739 76 153 0
0.460665 0.421356 -0.162347 76 153 0
0.182339 0.473481 -0.163772 76 153 0
-0.045934 0.473481 -0.344806 76 153 0
-0.436433 0.473481 -0.011185 76 153 0
0.460783 -0.304923 0.267698 0 127 127
-0.021960 -0.304923 0.172275 0 127 127
0.077636 -0.357049 -0.258722 0 127 127
0.000349 -0.304923 0.350906 0 127 127
-0.030347 0.473481 0.454088 76 153 0
0.224402 -0.357049 0.268671 0 127 127
-0.110238 0.421356 -0.193260 76 153 0
-0.330897 -0.326225 0.445930 0 127 127
-0.300872 -0.357049 -0.007027 0 127 127
-0.155866 -0.357049 -0.266887 0 127 127
0.186895 -0.330524 -0.515849 0 127 127
0.397761 -0.357049 0.039395 0 127 127
0.007052 0.180864 0.527420 153 0 76
-0.358539 -0.331075 0.412238 0 127 127
-0.246032 0.473481 -0.350078 76 153 0
0.474289 -0.566042 -0.254003 127 127 0
0.101424 0.421356 0.032737 76 153 0
0.088452 0.473481 0.214023 76 153 0
0.138461 0.421356 -0.158840 76 153 0
-0.279893 0.473481 0.137783 76 153 0
-0.347557 -0.357049 -0.292494 0 127 127
-0.229102 0.421356 -0.244586 76 153 0
0.117901 -0.304923 0.515945 0 127 127
-0.297135 0.473481 0.085748 76 153 0
-0.293532 -0.304923 -0.300897 0 127 127
-0.048827 -0.304923 -0.484209 0 127 127
0.033529 0.473481 0.087393 76 153 0
-0.024004 -0.304923 -0.054674 0 127 127
-0.103204 -0.357049 0.348860 0 127 127
-0.464851 -0.025034 -0.295821 76 153 0
0.454565 -0.107892 -0.298303 76 0 153
-0.211440 0.473481 -0.286326 76 153 0
-0.397432 0.473481 0.019272 76 153 0
-0.175029 -0.706717 0.538574 0 255 0
-0.513499 -0.353539 0.034127 0 127 127
-0.082411 -0.304923 -0.139639 0 127 127
-0.083509 -0.304923 0.272131 0 127 127
0.180186 0.473481 -0.301465 76 153 0
-0.059898 0.421356 -0.497835 76 153 0
0.119556 0.421356 -0.097669 76 153 0
-0.362080 0.473481 0.063523 76 153 0
-0.173487 -0.304923 -0.195285 0 127 127
-0.485231 0.309190 -0.308623 76 153 0
-0.015976 -0.357049 0.172300 0 127 127
-0.291259 0.473481 -0.190613 76 153 0
0.455523 0.304375 -0.299546 76 0 153
-0.128993 0.473481 -0.022700 76 153 0
0.462161 -0.716429 -0.244005 127 127 0
0.029100 -0.304923 0.247992 0 127 127
0.473294 -0.604324 -0.250987 127 127 0
-0.210026 0.473481 0.283490 76 153 0
-0.368288 -0.304923 -0.280718 0 127 127
0.025723 -0.357049 0.448731 0 127 127
-0.387536 -0.304923 0.070120 0 127 127
0.447455 0.421356 0.221088 76 153 0
0.250688 -0.304923 -0.128938 0 127 127
-0.050165 0.421356 -0.292561 76 153 0
0.385245 0.421356 -0.066025 76 153 0
-0.314388 0.473481 -0.458315 76 153 0
-0.506295 -0.348326 -0.135290 0 127 127
0.146942 -0.304923 -0.285744 0 127 127
0.157888 -0.338009 0.507361 0 127 127
0.052449 -0.357049 -0.363656 0 127 127
0.425549 -0.752232 -0.222453 127 0 127
0.421532 -0.692577 -0.254933 127 0 127
-0.038076 -0.304923 0.223241 0 127 127
-0.085264 -0.357049 0.065397 0 127 127
0.082413 0.445982 -0.541705 76 153 0
-0.203666 -0.355503 -0.469822 0 127 127
0.413811 -0.332998 -0.349034 0 127 127
0.502020 -0.172226 -0.270219 76 0 153
0.006906 -0.719427 0.553823 0 255 0
-0.306805 0.421356 -0.255652 76 153 0
-0.380224 -0.304923 0.224498 0 127 127
0.041336 -0.357049 0.279342 0 127 127
0.178375 0.447526 -0.518766 76 153 0
-0.161186 -0.622710 0.566374 0 255 0
-0.006117 0.421356 -0.186389 76 153 0
-0.532209 -0.340196 -0.074705 0 127 127
-0.412347 -0.304923 -0.293478 0 127 127
-0.067485 0.473481 -0.231561 76 153 0
-0.350739 -0.357049 0.021712 0 127 127
0.069985 0.421356 -0.351791 76 153 0
0.341027 -0.340107 0.399907 0 127 127
0.095148 0.421356 0.164664 76 153 0
-0.462059 0.347413 -0.272163 76 153 0
0.472760 0.058951 -0.308975 76 0 153
-0.015844 0.421356 -0.375962 76 153 0
0.060899 -0.357049 -0.163381 0 127 127
-0.496259 -0.471724 -0.255741 76 153 0
-0.528548 0.436072 -0.077773 76 153 0
-0.173033 -0.357049 0.111597 0 127 127
0.138196 0.473481 0.503544 76 153 0
0.021042 -0.229172 0.542642 153 0 76
-0.491523 0.461987 -0.253443 76 153 0
-0.481044 0.129004 -0.254268 76 153 0
0.329897 -0.304923 0.019094 0 127 127
-0.228962 -0.357049 0.184927 0 127 127
-0.074898 -0.674876 0.566374 0 255 0
0.185638 -0.304923 -0.468147 0 127 127
0.166744 -0.304923 -0.438039 0 127 127
0.335509 -0.357049 -0.200925 0 127 127
-0.179155 -0.357049 -0.150617 0 127 127
-0.010287 0.302040 0.579679 153 0 76
0.228269 -0.321495 0.499854 0 127 127
-0.287329 -0.304923 0.149922 0 127 127
0.006756 -0.535535 0.577528 255 0 0
-0.553917 0.450381 -0.046337 76 153 0
0.060167 -0.304923 -0.431951 0 127 127
0.076441 -0.357049 -0.219017 0 127 127
-0.223797 0.421356 -0.411828 76 153 0
0.038320 0.421356 -0.471077 76 153 0
0.316731 -0.304923 -0.310059 0 127 127
0.163840 0.473481 0.394616 76 153 0
-0.169158 -0.304923 0.391068 0 127 127
-0.478495 0.473481 0.085816 76 153 0
0.380785 0.473481 0.143626 76 153 0
-0.331227 0.473481 0.251538 76 153 0
-0.518782 -0.642618 -0.370647 0 0 255
0.360129 -0.304923 -0.077594 0 127 127
-0.417029 0.449066 0.358630 76 153 0
-0.295997 -0.357049 0.400939 0 127 127
0.244270 -0.304923 -0.079098 0 127 127
0.060759 -0.304923 -0.368899 0 127 127
0.182211 -0.304923 0.147216 0 127 127
0.216715 0.473481 -0.472474 76 153 0
0.456297 0.425304 -0.224668 76 153 0
-0.311638 -0.357049 -0.349379 0 127 127
-0.153659 -0.350364 -0.497513 0 127 127
0.528457 -0.331467 0.110431 0 127 127
-0.043632 0.421356 0.075333 76 153 0
-0.420496 0.421356 0.020126 76 153 0
-0.515290 -0.243676 -0.287651 76 153 0
0.529999 0.440173 0.011570 76 153 0
-0.037443 -0.304923 -0.548314 0 127 127
0.530086 0.444541 0.087271 76 153 0
-0.178895 0.421356 -0.246434 76 153 0
-0.104733 -0.752625 0.538574 0 255 0
-0.185699 -0.357049 -0.443782 0 127 127
-0.501212 -0.495724 -0.305121 204 51 127
-0.212856 -0.357049 -0.146484 0 127 127
-0.347692 -0.304923 -0.336932 0 127 127
0.326078 0.473481 -0.106467 76 153 0
-0.463418 0.421356 -0.090759 76 153 0
0.334581 -0.335590 -0.421945 0 127 127
-0.163665 -0.357049 0.363820 0 127 127
-0.045871 -0.357049 0.447874 0 127 127
0.248802 0.473481 0.084730 76 153 0
0.413623 -0.304923 -0.294514 0 127 127
0.226529 -0.304923 0.422020 0 127 127
-0.457492 -0.357049 0.180315 0 127 127
-0.512683 0.074467 -0.267747 76 153 0
-0.024189 -0.666060 0.566374 0 255 0
-0.121383 -0.357049 -0.070965 0 127 127
-0.160888 0.421356 0.389807 76 153 0
-0.522324 0.439641 0.126799 76 153 0
0.118077 0.473481 -0.144162 76 153 0
0.008441 0.289846 0.528135 153 0 76
0.062763 -0.357049 -0.321409 0 127 127
0.401343 -0.304923 0.188814 0 127 127
0.070095 -0.304923 -0.497842 0 127 127
-0.204991 0.473481 -0.014756 76 153 0
-0.278376 -0.357049 -0.029872 0 127 127
0.394172 -0.612146 -0.197135 127 0 127
0.178675 -0.357049 -0.382809 0 127 127
0.419448 -0.334717 0.331154 0 127 127
-0.275175 -0.357049 -0.139973 0 127 127
0.503620 0.310115 -0.275091 76 0 153
-0.136963 0.421356 0.301338 76 153 0
-0.028041 0.294231 0.537222 153 0 76
-0.115128 0.421356 0.477845 76 153 0
-0.381499 0.473481 -0.210250 76 153 0
-0.071491 -0.304923 0.213915 0 127 127
-0.023680 -0.587313 0.573628 255 0 0
0.439156 -0.649482 -0.254428 127 0 127
0.124164 0.473481 0.277168 76 153 0
-0.487328 -0.074229 -0.308724 76 153 0
-0.365287 0.473481 -0.385600 76 153 0
0.499495 0.120261 -0.297192 76 0 153
-0.139945 -0.357049 0.190739 0 127 127
-0.595752 -0.689751 -0.359227 0 0 255
-0.160819 -0.304923 -0.530312 0 127 127
-0.357349 0.447749 -0.421193 76 153 0
0.191523 0.473481 -0.077852 76 153 0
0.483150 -0.379237 -0.308506 76 0 153
0.194262 -0.357049 -0.272366 0 127 127
0.163424 0.421356 0.026032 76 153 0
0.088443 -0.304923 0.422237 0 127 127
0.512522 0.473481 0.130841 76 153 0
-0.322633 -0.304923 0.056151 0 127 127
-0.464287 -0.304923 -0.111590 0 127 127
-0.268921 -0.304923 0.063169 0 127 127
-0.140965 0.445440 0.522043 76 153 0
0.259742 -0.304923 -0.325555 0 127 127
-0.143794 0.421356 0.251914 76 153 0
0.349134 -0.304923 -0.300470 0 127 127
-0.514122 0.473481 0.190069 76 153 0
0.006835 0.473481 0.542695 153 0 76
0.373409 -0.304923 0.155040 0 127 127
0.003934 0.262809 0.578819 153 0 76
-0.058636 0.473481 -0.474683 76 153 0
-0.028843 -0.357049 0.229408 0 127 127
-0.260750 -0.357049 0.154536 0 127 127
0.463349 -0.357049 -0.009816 0 127 127
0.518895 -0.340400 -0.096277 0 127 127
-0.535364 0.473481 0.092691 76 153 0
-0.016823 0.473481 -0.375709 76 153 0
-0.472657 -0.357049 0.006765 0 127 127
-0.279741 -0.304923 0.382306 0 127 127
-0.290305 -0.357049 -0.168930 0 127 127
-0.300224 0.421356 0.314116 76 153 0
0.374178 -0.590076 -0.182600 127 0 127
0.239357 -0.306537 -0.502320 0 127 127
-0.518933 -0.777250 -0.340176 0 0 255
0.416328 0.421356 0.042386 76 153 0
0.074906 -0.333150 0.534391 0 127 127
-0.178529 -0.688973 0.566374 0 255 0
-0.184705 -0.304923 -0.056714 0 127 127
0.208349 -0.304923 -0.078467 0 127 127
-0.562692 -0.713945 -0.318990 0 0 255
-0.307658 0.473481 -0.135668 76 153 0
-0.258531 0.421356 0.206806 76 153 0
-0.054122 -0.304923 0.285456 0 127 127
-0.286663 -0.357049 -0.393776 0 127 127
0.019115 0.421356 -0.091363 76 153 0
0.145978 0.421356 0.325311 76 153 0
0.197927 -0.357049 0.392638 0 127 127
0.286244 0.473481 0.307037 76 153 0
-0.525793 -0.726314 -0.321503 0 0 255
-0.061863 -0.357049 -0.322128 0 127 127
-0.562009 -0.774783 -0.348812 0 0 255
-0.066279 0.473481 0.264272 76 153 0
-0.478219 0.214342 -0.306854 76 153 0
-0.514032 0.112169 -0.291467 76 153 0
0.301305 0.473481 -0.325052 76 153 0
0.300213 -0.316597 -0.466652 0 127 127
-0.495861 -0.682816 -0.342751 0 0 255
-0.024166 -0.731270 0.566374 0 255 0
-0.357149 -0.304923 -0.399438 0 127 127
-0.106884 -0.304923 -0.514346 0 127 127
0.444883 -0.304923 0.156689 0 127 127
-0.555281 -0.646305 -0.309970 0 0 255
-0.522040 0.473481 -0.069014 76 153 0
-0.515261 -0.448857 -0.287813 76 153 0
-0.474241 -0.497821 -0.257484 204 51 127
-0.078998 0.421356 0.181575 76 153 0
0.404333 -0.357049 0.291892 0 127 127
0.191714 0.421356 0.241589 76 153 0
-0.331972 0.421356 -0.008434 76 153 0
-0.011221 -0.485624 0.546239 255 0 0
0.119113 0.473481 0.399965 76 153 0
-0.173329 -0.658390 0.566374 0 255 0
0.147952 -0.357049 0.420783 0 127 127
-0.140787 0.473481 -0.511591 76 153 0
-0.172053 0.473481 0.500699 76 153 0
0.358548 0.421356 -0.340439 76 153 0
-0.492711 -0.725288 -0.266886 0 0 255
0.232698 0.473481 0.021334 76 153 0
0.468926 -0.711439 -0.293175 127 0 127
0.516880 0.445870 0.151358 76 153 0
0.152694 0.473481 -0.477489 76 153 0
-0.231599 0.421356 0.012495 76 153 0
-0.571398 -0.644585 -0.404030 0 0 255
0.263807 -0.335931 0.462900 0 127 127
-0.188721 0.473481 0.261032 76 153 0
0.429936 0.473481 0.297125 76 153 0
0.031787 0.473481 0.135896 76 153 0
-0.188326 0.473481 0.339734 76 153 0
-0.309752 0.430123 -0.424684 76 153 0
0.409054 -0.668458 -0.184138 127 0 127
0.428687 -0.357049 0.064557 0 127 127
0.022133 -0.357049 -0.051188 0 127 127
0.485622 -0.278603 -0.307748 76 0 153
0.350580 0.473481 0.034995 76 153 0
0.316060 0.421356 0.384352 76 153 0
-0.483203 -0.061911 -0.253753 76 153 0
0.361950 0.473481 -0.213425 76 153 0
0.131829 0.473481 0.057621 76 153 0
-0.577610 -0.586504 -0.367799 0 0 255
0.356410 -0.304923 0.090378 0 127 127
-0.058619 0.473481 -0.261098 76 153 0
0.164461 -0.304923 0.276676 0 127 127
-0.374557 0.473481 0.284992 76 153 0
0.144119 0.473481 0.214147 76 153 0
0.016216 0.021383 0.570443 153 0 76
0.060017 0.421356 -0.257172 76 153 0
-0.442476 -0.357049 -0.051810 0 127 127
-0.207474 -0.304923 0.304979 0 127 127
-0.146652 -0.332232 -0.528937 0 127 127
0.314867 0.473481 0.133919 76 153 0
-0.539846 -0.304923 -0.115710 0 127 127
-0.462199 -0.378152 -0.271757 76 153 0
-0.096018 0.473481 0.425684 76 153 0
-0.218540 -0.357049 0.247224 0 127 127
-0.017505 0.421356 0.483467 76 153 0
0.429902 0.426455 -0.274959 76 153 0
-0.050764 -0.649837 0.556563 0 255 0
-0.329067 0.421356 -0.166683 76 153 0
-0.526247 0.441269 -0.128644 76 153 0
0.409033 -0.304923 -0.010602 0 127 127
-0.380519 0.473481 0.358598 76 153 0
-0.005464 0.473481 -0.215564 76 153 0
-0.358126 0.473481 -0.166666 76 153 0
-0.021541 -0.398668 0.574694 153 0 76
-0.121577 0.421356 0.116700 76 153 0
-0.090415 0.473481 0.528871 76 153 0
-0.037672 -0.304923 -0.216134 0 127 127
0.420015 0.421356 -0.019820 76 153 0
-0.515044 -0.402847 -0.273645 76 153 0
-0.460571 0.189668 -0.282544 76 153 0
0.238884 -0.304923 -0.298235 0 127 127
0.273683 0.473481 -0.026484 76 153 0
-0.016927 -0.304923 -0.307515 0 127 127
-0.152734 -0.357049 0.048192 0 127 127
0.152647 -0.357049 -0.225877 0 127 127
-0.026350 -0.357049 0.260659 0 127 127
0.111131 0.473481 0.438501 76 153 0
0.035385 0.432222 0.516649 76 153 0
-0.438829 -0.332200 -0.333136 0 127 127
0.501731 -0.070297 -0.293279 76 0 153
-0.470446 -0.414628 -0.259760 76 153 0
-0.477214 -0.580861 -0.258482 204 51 127
0.129805 0.421356 0.213372 76 153 0
0.422962 -0.577911 -0.221576 127 0 127
0.153218 -0.304923 0.438191 0 127 127
-0.144323 -0.749801 0.538574 0 255 0
0.139118 -0.357049 -0.330826 0 127 127
-0.244265 -0.357049 0.018313 0 127 127
0.013603 -0.304923 -0.220525 0 127 127
0.455592 0.300955 -0.263441 76 0 153
0.084185 0.421356 0.434856 76 153 0
0.351566 -0.304923 -0.107995 0 127 127
-0.467792 0.421356 0.110277 76 153 0
-0.001992 0.118402 0.524901 153 0 76
-0.259858 -0.304923 -0.449956 0 127 127
0.321376 0.441145 -0.429722 76 153 0
0.069258 -0.304923 -0.015448 0 127 127
-0.304224 0.421356 -0.021250 76 153 0
-0.470229 0.473481 -0.086486 76 153 0
-0.283864 -0.357049 0.250634 0 127 127
0.268425 -0.357049 -0.240844 0 127 127
-0.577669 -0.757874 -0.411662 0 0 255
-0.280356 0.473481 0.292547 76 153 0
0.237403 -0.357049 0.361298 0 127 127
-0.320087 -0.304923 -0.232613 0 127 127
-0.410549 -0.304923 0.182503 0 127 127
-0.331276 0.421356 -0.300247 76 153 0
0.515969 0.473481 0.058565 76 153 0
0.175925 0.473481 -0.043263 76 153 0
0.133465 0.421356 0.468921 76 153 0
-0.060006 -0.598162 0.538574 0 255 0
-0.464609 0.446065 0.287065 76 153 0
0.309163 0.448850 0.447036 76 153 0
-0.324796 -0.357049 -0.233417 0 127 127
0.016667 -0.304923 -0.159025 0 127 127
-0.115989 0.473481 0.235434 76 153 0
-0.178428 -0.304923 -0.018991 0 127 127
-0.165246 -0.357049 -0.350235 0 127 127
-0.067421 0.473481 -0.186882 76 153 0
-0.017710 0.394501 0.527830 153 0 76
0.294520 0.421356 0.097349 76 153 0
-0.448925 0.473481 0.292492 76 153 0
0.325954 -0.668110 -0.177811 127 0 127
0.452397 -0.339656 0.268718 0 127 127
0.259402 -0.357049 0.386618 0 127 127
-0.481573 0.299114 -0.254107 76 153 0
0.504318 -0.326316 -0.280232 76 0 153
0.338283 0.473481 0.067035 76 153 0
0.002747 -0.357049 -0.487671 0 127 127
0.443534 0.455581 -0.277992 76 153 0
-0.233783 0.421356 0.305495 76 153 0
-0.530500 -0.304923 0.112250 0 127 127
-0.470106 -0.357049 -0.094657 0 127 127
-0.500176 0.006438 -0.255936 76 153 0
-0.093319 -0.357049 -0.249195 0 127 127
-0.494060 -0.355887 -0.253894 76 153 0
0.124320 -0.357049 0.315041 0 127 127
0.262528 -0.304923 0.302959 0 127 127
0.404208 -0.712948 -0.180227 127 0 127
0.500723 0.214808 -0.295398 76 0 153
-0.397201 0.473481 0.121561 76 153 0
-0.445968 -0.304923 -0.241445 0 127 127
-0.302769 -0.304923 -0.419980 0 127 127
0.345417 -0.741177 -0.193517 127 0 127
-0.160694 0.421356 -0.425006 76 153 0
-0.136209 0.473481 -0.320398 76 153 0
-0.248216 -0.309349 -0.502696 0 127 127
0.097637 0.473481 -0.196411 76 153 0
-0.342159 0.421356 -0.239026 76 153 0
0.456473 0.063608 -0.262510 76 0 153
-0.274234 0.421356 0.101268 76 153 0
-0.479096 0.078271 -0.307158 76 153 0
0.138677 -0.304923 -0.506051 0 127 127
-0.022818 0.355907 0.573604 153 0 76
-0.318986 -0.357049 0.062247 0 127 127
-0.111283 -0.357049 -0.477240 0 127 127
-0.205604 0.421356 -0.343239 76 153 0
-0.125877 -0.671478 0.538574 0 255 0
-0.029256 0.421356 0.165733 76 153 0
0.427044 -0.304923 -0.262615 0 127 127
-0.470551 -0.304923 -0.052965 0 127 127
0.237190 -0.357049 -0.167379 0 127 127
0.006572 -0.329127 0.527221 153 0 76
-0.508006 -0.332016 0.204234 0 127 127
-0.398900 0.450367 -0.390113 76 153 0
0.402374 0.421356 0.015716 76 153 0
-0.310114 -0.304923 0.277267 0 127 127
-0.462897 0.421356 0.064154 76 153 0
0.391521 -0.769487 -0.230717 127 0 127
0.283365 -0.357049 0.181037 0 127 127
0.399229 0.421356 -0.269291 76 153 0
-0.213592 0.421356 0.361403 76 153 0
0.020124 0.421356 -0.435220 76 153 0
0.041017 -0.304923 0.395272 0 127 127
0.118997 0.473481 -0.010064 76 153 0
-0.429048 0.421356 0.162632 76 153 0
-0.127174 -0.304923 -0.240083 0 127 127
0.000694 -0.304923 0.129044 0 127 127
0.325667 -0.304923 -0.415638 0 127 127
0.030180 0.473481 0.397762 76 153 0
-0.508110 -0.338556 -0.300441 76 153 0
-0.030807 0.205311 0.562309 153 0 76
0.287342 -0.304923 -0.195142 0 127 127
0.377147 -0.304923 -0.174859 0 127 127
-0.086477 -0.603360 0.566374 0 255 0
0.272071 -0.357049 0.238727 0 127 127
0.189600 0.421356 -0.465016 76 153 0
0.386304 -0.606731 -0.226507 127 0 127
0.452759 0.421356 -0.059443 76 153 0
0.342904 0.421356 -0.240187 76 153 0
0.466880 0.027987 -0.307552 76 0 153
0.222298 0.421356 -0.444657 76 153 0
-0.154222 -0.357049 -0.015684 0 127 127
-0.301548 -0.357049 0.359227 0 127 127
0.026766 0.473481 0.258769 76 153 0
0.156342 0.421356 -0.210941 76 153 0
-0.460634 -0.186445 -0.279240 76 153 0
0.115979 0.421356 -0.280707 76 153 0
0.504037 -0.384559 -0.285685 76 0 153
0.352533 -0.357049 0.203576 0 127 127
-0.458523 -0.357049 0.213027 0 127 127
-0.064639 -0.778962 0.566374 0 255 0
0.321999 -0.357049 -0.139190 0 127 127
0.506358 0.425963 0.023051 76 153 0
-0.315650 -0.357049 0.198083 0 127 127
-0.235384 -0.357049 0.116532 0 127 127
-0.426168 -0.357049 0.082157 0 127 127
0.204136 -0.357049 0.451477 0 127 127
-0.387049 0.421356 0.259299 76 153 0
0.008850 0.421356 0.193490 76 153 0
-0.165574 -0.357049 0.334030 0 127 127
-0.096413 -0.304923 0.238526 0 127 127
-0.538598 -0.756233 -0.320319 0 0 255
0.478805 -0.304923 0.092607 0 127 127
0.138208 0.473481 0.164403 76 153 0
0.481159 -0.215760 -0.308879 76 0 153
-0.183180 0.473481 0.472660 76 153 0
-0.013957 0.344292 0.526234 153 0 76
0.300920 0.421356 -0.168661 76 153 0
-0.383721 -0.357049 0.151523 0 127 127
-0.402133 -0.357049 0.037078 0 127 127
-0.037026 -0.304923 -0.348709 0 127 127
0.014972 -0.622071 0.558251 255 0 0
-0.083989 -0.357049 0.035643 0 127 127
0.154801 -0.304923 0.209111 0 127 127
-0.306706 0.473481 -0.363897 76 153 0
-0.262821 0.421356 -0.192447 76 153 0
-0.002964 -0.304923 -0.445073 0 127 127
-0.340355 -0.357049 -0.263351 0 127 127
-0.214052 0.473481 -0.079354 76 153 0
0.277999 0.473481 -0.393739 76 153 0
-0.032568 0.473481 0.006595 76 153 0
0.277372 -0.304923 0.078149 0 127 127
0.240286 0.421356 0.379131 76 153 0
-0.426437 0.421356 -0.216069 76 153 0
-0.269389 -0.304923 0.309354 0 127 127
0.540585 -0.304923 -0.060004 0 127 127
-0.081736 -0.724862 0.585834 0 255 0
0.311728 0.421356 0.261660 76 153 0
-0.479712 -0.336744 0.248974 0 127 127
-0.528217 -0.577020 -0.339908 0 0 255
0.249273 -0.304923 -0.243333 0 127 127
-0.442457 -0.357049 -0.228986 0 127 127
-0.156127 -0.663519 0.538574 0 255 0
-0.233251 -0.357049 -0.183922 0 127 127
-0.521017 -0.334492 -0.168490 0 127 127
0.416989 0.421356 0.223942 76 153 0
-0.091577 -0.304923 -0.180745 0 127 127
0.154254 -0.304923 0.050506 0 127 127
-0.235189 -0.357049 -0.034124 0 127 127
0.289446 0.473481 0.235585 76 153 0
0.495653 0.473481 0.157182 76 153 0
0.467279 -0.315535 -0.307669 76 0 153
-0.181563 -0.357049 -0.081330 0 127 127
0.164491 -0.357049 0.445960 0 127 127
0.363685 -0.304923 -0.342372 0 127 127
0.042174 0.421356 0.007457 76 153 0
-0.352817 -0.304923 0.124882 0 127 127
-0.508562 -0.658289 -0.311938 204 51 127
0.137344 0.421356 -0.054302 76 153 0
-0.209690 -0.304923 0.442413 0 127 127
-0.298320 -0.304923 0.230422 0 127 127
-0.139429 0.473481 -0.070464 76 153 0
-0.054264 0.473481 -0.407004 76 153 0
0.401261 -0.304923 0.115893 0 127 127
0.169462 -0.353274 -0.483793 0 127 127
-0.379101 0.473481 0.388425 76 153 0
-0.156300 0.421356 -0.119727 76 153 0
-0.362632 -0.304923 -0.004995 0 127 127
0.499778 -0.533133 -0.266830 127 127 0
0.125681 0.473481 -0.078123 76 153 0
-0.006584 0.473481 0.076306 76 153 0
0.143829 -0.304923 -0.096416 0 127 127
0.268718 0.421356 -0.121247 76 153 0
-0.501821 -0.304923 -0.011553 0 127 127
-0.445856 0.473481 -0.339996 76 153 0
0.309547 -0.357049 -0.333626 0 127 127
0.131263 -0.357049 -0.437872 0 127 127
0.197633 -0.357049 0.317299 0 127 127
0.432048 0.421356 -0.169477 76 153 0
-0.291826 0.421356 0.234506 76 153 0
-0.396176 -0.304923 0.333167 0 127 127
0.024999 0.421356 0.424966 76 153 0
0.171739 -0.357049 -0.203438 0 127 127
0.261666 -0.357049 0.330547 0 127 127
-0.513778 -0.735210 -0.290111 0 0 255
-0.122760 0.473481 0.167671 76 153 0
0.020037 0.244165 0.540215 153 0 76
0.214494 0.473481 0.114455 76 153 0
0.091090 0.421356 0.218071 76 153 0
-0.098697 -0.304923 -0.228679 0 127 127
0.248834 0.421356 0.139625 76 153 0
0.116753 -0.304923 -0.045277 0 127 127
0.496634 0.361897 -0.300713 76 0 153
-0.120898 -0.304923 -0.470696 0 127 127
0.489661 -0.482509 -0.297703 76 0 153
0.404815 0.434093 0.324722 76 153 0
-0.218921 0.421356 0.079006 76 153 0
-0.459366 0.473481 0.189480 76 153 0
-0.208434 -0.357049 0.432148 0 127 127
0.376402 -0.357049 0.010652 0 127 127
-0.025509 0.473481 -0.437170 76 153 0
0.533589 0.473481 0.104499 76 153 0
0.192809 -0.304923 -0.172374 0 127 127
0.144788 0.421356 -0.377829 76 153 0
0.322089 0.421356 0.030955 76 153 0
-0.157191 -0.322303 0.529944 0 127 127
0.394336 0.473481 0.273202 76 153 0
0.091003 -0.357049 0.077901 0 127 127
0.227840 0.421356 -0.209902 76 153 0
0.337522 0.473481 0.154545 76 153 0
0.261288 0.473481 -0.468803 76 153 0
0.369284 0.421356 0.331922 76 153 0
0.222174 0.473481 -0.400389 76 153 0
-0.368362 0.421356 -0.205278 76 153 0
-0.264017 0.421356 0.066772 76 153 0
0.503405 0.088635 -0.288713 76 0 153
-0.271578 0.421356 0.385264 76 153 0
0.116908 -0.338444 0.516486 0 127 127
0.374203 -0.304923 -0.234028 0 127 127
-0.154634 -0.304923 0.017597 0 127 127
0.011647 -0.304923 -0.031604 0 127 127
0.052055 -0.304923 0.514102 0 127 127
-0.142854 0.473481 0.498188 76 153 0
-0.040686 -0.357049 -0.253588 0 127 127
-0.427236 0.473481 0.066304 76 153 0
-0.340322 -0.357049 0.246851 0 127 127
0.118651 -0.304923 0.049507 0 127 127
-0.283574 -0.337609 0.453633 0 127 127
0.007001 0.421356 -0.153450 76 153 0
0.529096 0.447823 -0.120884 76 153 0
-0.154502 -0.304923 0.449142 0 127 127
-0.425620 0.473481 -0.292458 76 153 0
0.435487 0.473481 0.164910 76 153 0
-0.112158 -0.304923 0.340193 0 127 127
0.336428 0.473481 0.283649 76 153 0
0.510309 0.473481 -0.169148 76 153 0
-0.316259 -0.357049 0.316285 0 127 127
0.298627 -0.304923 0.142544 0 127 127
-0.103632 0.421356 -0.328317 76 153 0
0.346317 0.473481 -0.057748 76 153 0
-0.266188 -0.304923 -0.218152 0 127 127
0.021419 -0.488476 0.543732 255 0 0
-0.311696 -0.304923 0.423948 0 127 127
-0.177488 -0.618434 0.538962 0 255 0
-0.386367 -0.304923 0.292083 0 127 127
0.190374 0.473481 0.045046 76 153 0
-0.366128 0.421356 0.017719 76 153 0
0.378127 0.473481 -0.396388 76 153 0
-0.389314 -0.357049 -0.139418 0 127 127
0.267910 0.421356 -0.357997 76 153 0
0.367344 0.421356 0.013420 76 153 0
0.450913 0.473481 0.252254 76 153 0
0.162913 0.445828 0.515066 76 153 0
-0.502417 -0.007407 -0.304981 76 153 0
-0.543947 0.445583 0.068416 76 153 0
0.420663 -0.649861 -0.218511 127 0 127
0.311220 -0.304923 -0.252248 0 127 127
-0.496628 0.393401 -0.254571 76 153 0
-0.502040 -0.023539 -0.256930 76 153 0
-0.004360 0.421356 0.091209 76 153 0
-0.514500 -0.031265 -0.290115 76 153 0
-0.143592 0.421356 0.146336 76 153 0
0.280679 -0.304923 -0.233088 0 127 127
-0.032352 -0.433686 0.556679 153 0 76
0.065816 0.421356 -0.318909 76 153 0
-0.127625 0.421356 -0.003513 76 153 0
0.020771 -0.357049 -0.243611 0 127 127
-0.084569 -0.304923 0.177442 0 127 127
-0.237519 0.473481 0.136083 76 153 0
-0.413266 -0.304923 0.253109 0 127 127
0.095859 0.473481 -0.351065 76 153 0
-0.512931 -0.079236 -0.268258 76 153 0
-0.102128 -0.309143 -0.550222 0 127 127
0.104210 -0.304923 0.328218 0 127 127
0.381298 -0.357049 -0.300041 0 127 127
0.128719 -0.357049 -0.076973 0 127 127
0.463806 -0.304923 -0.237402 0 127 127
-0.103139 -0.304923 0.040647 0 127 127
-0.182662 0.473481 -0.499887 76 153 0
0.447838 0.473481 -0.055595 76 153 0
0.364066 -0.325785 0.410270 0 127 127
0.504378 -0.426777 -0.282379 76 0 153
-0.321526 -0.304923 -0.054634 0 127 127
-0.348172 0.421356 0.246027 76 153 0
0.451518 0.148943 -0.293369 76 0 153
-0.133848 0.473481 -0.100812 76 153 0
-0.158550 -0.357049 0.255155 0 127 127
0.095219 -0.304923 -0.101545 0 127 127
-0.346562 0.473481 -0.408399 76 153 0
-0.212273 -0.334441 -0.502619 0 127 127
0.337498 -0.695060 -0.187127 127 0 127
-0.517487 -0.304923 -0.096460 0 127 127
0.222753 0.473481 0.360458 76 153 0
-0.128452 0.421356 -0.064491 76 153 0
0.449081 -0.368935 -0.284986 76 0 153
0.086714 0.421356 0.057702 76 153 0
-0.459112 0.473481 -0.047728 76 153 0
0.394157 0.421356 0.199240 76 153 0
0.389260 -0.760808 -0.193171 127 0 127
-0.362536 -0.304923 0.086843 0 127 127
0.479251 0.473481 0.213937 76 153 0
0.013112 0.075000 0.573551 153 0 76
0.125293 0.473481 -0.233983 76 153 0
-0.399207 0.425499 0.321616 76 153 0
-0.026103 0.473481 -0.468887 76 153 0
0.443405 -0.320497 -0.283892 0 127 127
-0.609547 -0.676284 -0.406668 0 0 255
-0.297329 0.421356 0.162763 76 153 0
-0.032413 -0.227204 0.555905 153 0 76
-0.455072 0.421356 0.008114 76 153 0
-0.153379 -0.304923 0.098061 0 127 127
0.497130 -0.676363 -0.281604 127 0 127
-0.276594 -0.321624 0.480052 0 127 127
-0.067140 0.438416 0.524829 76 153 0
-0.202007 -0.304923 0.223144 0 127 127
-0.052058 0.421356 0.384170 76 153 0
-0.454545 -0.357049 0.064101 0 127 127
-0.185914 0.473481 0.070094 76 153 0
-0.028172 -0.304923 -0.123935 0 127 127
0.388533 0.473481 0.040103 76 153 0
-0.133118 -0.304923 -0.081855 0 127 127
0.285122 0.473481 -0.452069 76 153 0
0.071291 0.421356 -0.484391 76 153 0
-0.491748 -0.107056 -0.308527 76 153 0
-0.024776 -0.357049 -0.431549 0 127 127
0.450664 -0.076893 -0.291230 76 0 153
-0.159237 0.473481 0.431929 76 153 0
-0.606532 -0.719728 -0.402998 0 0 255
-0.390456 0.421356 -0.141420 76 153 0
0.274805 0.421356 -0.001975 76 153 0
-0.237997 -0.357049 -0.366665 0 127 127
-0.501232 0.421356 -0.069026 76 153 0
0.183184 0.473481 0.226185 76 153 0
0.458706 0.473481 0.069157 76 153 0
0.379016 -0.656676 -0.181497 127 0 127
0.252331 -0.357049 0.214462 0 127 127
-0.222975 0.473481 -0.412921 76 153 0
-0.026083 -0.200308 0.534621 153 0 76
-0.229159 0.421356 -0.024949 76 153 0
0.136768 -0.304923 -0.377774 0 127 127
-0.045698 -0.304923 0.438319 0 127 127
0.076291 0.421356 -0.201099 76 153 0
0.449579 -0.134980 -0.275283 76 0 153
-0.101525 0.473481 -0.137226 76 153 0
-0.465357 0.405905 -0.265440 76 153 0
0.047316 -0.304923 0.159400 0 127 127
0.125226 0.421356 0.264952 76 153 0
-0.525500 -0.304923 0.043313 0 127 127
0.036380 0.473481 -0.536822 76 153 0
0.130239 0.421356 0.416533 76 153 0
0.356936 -0.340967 -0.391574 0 127 127
-0.086590 -0.304923 -0.458091 0 127 127
0.448277 -0.588063 -0.241180 127 0 127
0.241441 0.421356 -0.251330 76 153 0
-0.602196 -0.690652 -0.440362 0 0 255
-0.061820 0.421356 -0.367835 76 153 0
0.015274 0.353685 0.571546 153 0 76
-0.217682 0.473481 0.486711 76 153 0
0.190011 0.421356 -0.186015 76 153 0
0.067909 -0.304923 -0.532425 0 127 127
-0.064801 -0.683204 0.538574 0 255 0
-0.221951 -0.357049 -0.316480 0 127 127
0.455289 0.160663 -0.263762 76 0 153
0.295269 -0.304923 -0.124977 0 127 127
0.550726 -0.312793 0.001472 0 127 127
0.157643 0.473481 -0.201690 76 153 0
0.088764 0.473481 -0.255355 76 153 0
-0.083110 -0.789957 0.540541 0 255 0
-0.137606 -0.751323 0.566374 0 255 0
-0.188507 -0.304923 -0.450202 0 127 127
-0.023072 0.421356 0.244477 76 153 0
-0.251975 0.421356 0.172097 76 153 0
-0.338030 -0.346830 0.396704 0 127 127
0.269007 0.421356 0.205868 76 153 0
0.216204 0.473481 -0.284522 76 153 0
0.087118 0.473481 0.092817 76 153 0
-0.191509 -0.357049 0.014433 0 127 127
-0.262532 0.421356 0.339562 76 153 0
0.171788 -0.357049 -0.022665 0 127 127
-0.189277 0.422287 -0.474721 76 153 0
0.151292 -0.357049 0.222270 0 127 127
0.043380 -0.357049 0.342737 0 127 127
0.425011 0.473481 0.327166 76 153 0
0.185778 0.421356 -0.043798 76 153 0
-0.299813 -0.304923 -0.094281 0 127 127
0.378391 -0.701109 -0.220123 127 0 127
-0.015714 0.473481 0.359514 76 153 0
0.310545 0.473481 -0.406987 76 153 0
-0.390490 -0.334526 -0.384022 0 127 127
0.072925 -0.357049 0.441859 0 127 127
-0.276895 0.473481 0.264011 76 153 0
-0.233287 0.473481 0.092786 76 153 0
-0.043512 -0.304923 -0.188099 0 127 127
-0.520237 -0.662848 -0.341763 0 0 255
-0.482961 0.437921 -0.236462 76 153 0
0.013335 0.421356 -0.382493 76 153 0
-0.114255 0.421356 -0.368639 76 153 0
0.480413 -0.329713 -0.248467 0 127 127
-0.145098 -0.304923 -0.138650 0 127 127
-0.049052 0.421356 0.020144 76 153 0
0.208169 -0.304923 0.202896 0 127 127
-0.299719 0.473481 -0.285560 76 153 0
-0.299764 -0.304923 -0.152618 0 127 127
-0.397130 -0.304923 -0.201209 0 127 127
-0.408296 -0.304923 0.132734 0 127 127
-0.548939 -0.666180 -0.332905 0 0 255
0.217653 0.473481 -0.012974 76 153 0
-0.065060 0.473481 0.487577 76 153 0
-0.096606 -0.304923 0.099166 0 127 127
-0.478430 0.473481 0.123688 76 153 0
0.025218 -0.304923 -0.330067 0 127 127
-0.362251 0.473481 -0.001484 76 153 0
-0.135636 -0.357049 -0.103110 0 127 127
0.140290 0.421356 0.042536 76 153 0
-0.179409 -0.304923 0.135893 0 127 127
-0.071942 0.421356 0.085569 76 153 0
0.348139 0.435143 -0.394274 76 153 0
-0.469799 0.244026 -0.301746 76 153 0
-0.507963 -0.618407 -0.326826 0 0 255
-0.252506 0.421356 0.427809 76 153 0
0.013655 -0.344448 -0.528195 0 127 127
0.227676 -0.357049 -0.018738 0 127 127
0.014730 0.473481 -0.139616 76 153 0
0.449449 -0.357049 -0.051537 0 127 127
0.021685 0.298132 0.560526 153 0 76
0.010407 -0.032175 0.529339 153 0 76
0.418136 0.449632 0.347290 76 153 0
0.272204 0.473481 0.151672 76 153 0
-0.330867 0.421356 -0.102919 76 153 0
-0.580206 -0.742410 -0.370958 0 0 255
0.376488 -0.726946 -0.207439 127 0 127
-0.062627 -0.728530 0.551059 0 255 0
-0.257151 -0.357049 0.409720 0 127 127
0.504018 0.283229 -0.285827 76 0 153
-0.125863 -0.357049 -0.296598 0 127 127
-0.202895 0.450759 -0.518236 76 153 0
0.455762 -0.739367 -0.282554 127 0 127
-0.532135 0.473481 -0.108652 76 153 0
0.034468 -0.357049 0.251911 0 127 127
-0.168388 0.473481 -0.132218 76 153 0
-0.053289 0.421356 -0.104517 76 153 0
-0.293860 -0.357049 0.141585 0 127 127
-0.317444 0.421356 0.052691 76 153 0
0.132478 -0.304923 -0.002296 0 127 127
-0.138453 -0.780901 0.564925 0 255 0
0.314086 -0.357049 0.197946 0 127 127
-0.197000 0.473481 0.401324 76 153 0
0.332013 0.473481 0.188903 76 153 0
0.279040 -0.348213 -0.437648 0 127 127
-0.243656 0.421754 -0.449531 76 153 0
-0.363117 0.421356 -0.040997 76 153 0
0.094629 -0.304923 0.278941 0 127 127
-0.492272 -0.304923 0.183606 0 127 127
-0.293385 0.473481 0.233724 76 153 0
-0.252262 -0.353572 0.442959 0 127 127
-0.359511 0.473481 -0.045189 76 153 0
-0.476859 -0.441812 -0.255779 76 153 0
0.361464 -0.357049 0.067471 0 127 127
-0.089309 0.473481 -0.455022 76 153 0
-0.533468 -0.681216 -0.388520 0 0 255
-0.198055 0.473481 -0.317949 76 153 0
0.232426 -0.304923 0.131195 0 127 127
-0.032392 -0.120431 0.556173 153 0 76
0.091048 0.473481 0.011440 76 153 0
0.132188 -0.357049 -0.473458 0 127 127
-0.029754 0.421356 0.136658 76 153 0
0.333213 -0.357049 -0.353072 0 127 127
0.214097 -0.304923 0.005786 0 127 127
-0.288784 0.473481 -0.424436 76 153 0
0.512295 0.450026 0.185459 76 153 0
0.097009 -0.357049 0.205644 0 127 127
-0.352319 0.421356 0.350540 76 153 0
0.352570 -0.633737 -0.199288 127 0 127
0.195017 -0.357049 0.255582 0 127 127
0.502762 -0.304923 -0.206872 0 127 127
0.432028 -0.304923 0.308086 0 127 127
0.367807 -0.338683 0.380020 0 127 127
-0.284775 -0.304923 0.008612 0 127 127
0.502190 -0.304923 0.034319 0 127 127
0.109661 -0.357049 0.134579 0 127 127
0.455023 -0.357049 0.023415 0 127 127
-0.418152 -0.334920 0.343608 0 127 127
-0.046944 0.473481 -0.523203 76 153 0
-0.145112 0.421356 0.466596 76 153 0
0.230173 -0.357049 -0.228121 0 127 127
-0.541437 -0.596659 -0.323775 0 0 255
0.003403 -0.107043 0.525961 153 0 76
0.501833 -0.026082 -0.269862 76 0 153
-0.387383 -0.357049 0.211550 0 127 127
-0.022048 0.253168 0.574261 153 0 76
-0.180419 -0.744918 0.565770 0 255 0
-0.046555 -0.304923 0.489977 0 127 127
0.343530 0.421356 0.217572 76 153 0
-0.196069 -0.304923 0.330812 0 127 127
-0.582270 -0.726827 -0.342818 0 0 255
0.240359 -0.304923 0.238040 0 127 127
0.007903 -0.568524 0.576970 255 0 0
0.387979 -0.357049 0.269093 0 127 127
0.508891 -0.304923 -0.079633 0 127 127
-0.020313 0.427301 0.510730 76 153 0
0.186808 -0.332567 0.505298 0 127 127
-0.044381 -0.357049 -0.049280 0 127 127
0.439846 -0.698816 -0.233989 127 0 127
-0.080687 0.473481 0.327947 76 153 0
-0.198555 0.473481 0.203530 76 153 0
0.374139 0.473481 -0.156246 76 153 0
0.440385 -0.357049 -0.187404 0 127 127
0.406396 0.473481 -0.291429 76 153 0
0.492979 0.455831 0.242953 76 153 0
-0.159418 -0.304923 0.504902 0 127 127
0.433425 0.473481 -0.166853 76 153 0
0.245445 0.444101 -0.484257 76 153 0
0.140440 0.473481 0.303329 76 153 0
-0.498596 -0.340560 -0.198396 0 127 127
0.356652 0.427385 0.363671 76 153 0
-0.405263 -0.349616 -0.329665 0 127 127
0.456635 -0.672862 -0.254898 127 127 0
-0.232195 -0.304923 0.000669 0 127 127
0.248780 -0.304923 -0.442331 0 127 127
0.438328 -0.614569 -0.277131 127 127 0
0.125771 -0.357049 -0.133235 0 127 127
-0.411075 -0.357049 -0.220772 0 127 127
-0.082742 -0.304923 -0.294024 0 127 127
-0.191867 -0.357049 -0.274649 0 127 127
0.498823 0.372037 -0.264927 76 0 153
0.364903 -0.304923 -0.134630 0 127 127
-0.474587 -0.208633 -0.305108 76 153 0
0.201253 -0.304923 0.405771 0 127 127
-0.172268 -0.357049 -0.210976 0 127 127
0.510907 0.453449 -0.206728 76 153 0
0.183679 -0.304923 -0.015548 0 127 127
-0.374422 -0.357049 0.040187 0 127 127
-0.509298 0.438199 0.166977 76 153 0
0.400923 0.421356 0.284677 76 153 0
-0.558491 0.460625 0.026909 76 153 0
0.162723 -0.328101 -0.529512 0 127 127
0.116452 -0.304923 -0.296703 0 127 127
-0.370985 -0.357049 -0.086063 0 127 127
0.412274 0.436477 -0.328902 76 153 0
0.196579 -0.357049 -0.112362 0 127 127
0.507049 0.440032 -0.159475 76 153 0
-0.212781 0.421356 -0.219883 76 153 0
0.313333 0.421356 -0.009488 76 153 0
-0.484056 -0.304923 -0.133409 0 127 127
-0.036912 -0.752102 0.538574 0 255 0
0.431780 -0.745810 -0.263202 127 0 127
0.260605 0.473481 0.317854 76 153 0
-0.412208 0.473481 -0.192407 76 153 0
-0.239829 0.473481 -0.065438 76 153 0
0.338765 -0.304923 0.208529 0 127 127
-0.432668 0.473481 -0.173587 76 153 0
-0.061429 -0.357049 0.211528 0 127 127
0.140454 -0.304923 0.488780 0 127 127
0.454068 -0.207643 -0.265426 76 0 153
-0.463348 -0.304923 0.291002 0 127 127
-0.515861 -0.119254 -0.284442 76 153 0
0.482485 0.413596 -0.254364 76 0 153
-0.271736 0.421356 -0.225059 76 153 0
0.060141 -0.357049 -0.453291 0 127 127
0.029276 0.473481 0.524236 76 153 0
-0.237409 -0.304923 0.179795 0 127 127
-0.417096 -0.357049 0.178518 0 127 127
-0.249336 -0.357049 -0.080360 0 127 127
0.460602 -0.526618 -0.303247 127 127 0
-0.435320 0.465553 0.345971 76 153 0
-0.303046 -0.312524 -0.470901 0 127 127
0.352693 -0.357049 -0.027701 0 127 127
0.312701 -0.357049 0.085403 0 127 127
0.215116 -0.332313 -0.501070 0 127 127
0.491960 -0.357049 -0.009259 0 127 127
-0.172099 0.473481 0.224936 76 153 0
0.267735 0.473481 0.366736 76 153 0
-0.071446 0.421356 -0.414626 76 153 0
-0.063616 -0.342989 0.520305 0 127 127
0.168659 -0.304923 -0.065260 0 127 127
-0.072612 0.473481 -0.353501 76 153 0
-0.331349 0.473481 0.350013 76 153 0
0.133004 -0.357049 0.258413 0 127 127
0.339705 -0.695884 -0.153185 127 0 127
-0.001914 -0.535613 0.525742 255 0 0
-0.063316 0.421356 -0.169565 76 153 0
-0.161856 0.446745 -0.526228 76 153 0
0.232279 -0.357049 -0.407312 0 127 127
0.451272 0.373191 -0.270322 76 0 153
-0.140953 -0.304923 0.042695 0 127 127
0.467756 -0.582672 -0.307116 127 127 0
-0.461526 0.452719 -0.288172 76 153 0
-0.389053 -0.346221 0.349923 0 127 127
-0.329187 0.473481 0.143356 76 153 0
-0.468702 -0.551385 -0.264130 204 51 127
0.236709 0.421356 -0.278941 76 153 0
-0.201480 0.421356 0.214543 76 153 0
-0.182936 -0.357049 0.049806 0 127 127
-0.184640 -0.304923 -0.247786 0 127 127
0.053670 0.446176 0.537538 76 153 0
-0.342579 -0.357049 -0.327927 0 127 127
-0.401847 0.440489 -0.362400 76 153 0
0.493759 -0.446712 -0.303319 76 0 153
-0.493816 0.473481 0.168529 76 153 0
-0.041107 -0.357049 0.005511 0 127 127
0.477856 0.136918 -0.253771 76 0 153
0.009352 0.162150 0.576255 153 0 76
0.292135 0.473481 0.193404 76 153 0
-0.061605 0.439270 -0.533690 76 153 0
0.294059 -0.357049 0.377015 0 127 127
-0.129668 0.473481 0.119040 76 153 0
-0.285055 -0.338149 -0.458773 0 127 127
-0.019554 -0.625294 0.528184 255 0 0
-0.373891 0.421356 0.133688 76 153 0
0.010386 -0.660272 0.558744 0 255 0
-0.434580 -0.304923 0.200329 0 127 127
0.390573 -0.337309 -0.365655 0 127 127
-0.001786 0.056148 0.524918 153 0 76
0.064300 -0.304923 -0.204500 0 127 127
-0.198356 -0.669706 0.566161 0 255 0
0.133191 -0.304923 0.112849 0 127 127
-0.353291 -0.304923 -0.303725 0 127 127
-0.003807 -0.138531 0.524759 153 0 76
-0.472577 0.479041 -0.282394 76 153 0
0.121077 0.473481 -0.433557 76 153 0
-0.217436 0.434474 0.477038 76 153 0
-0.129994 0.473481 -0.374001 76 153 0
-0.486561 -0.625453 -0.281068 0 0 255
-0.075137 0.473481 0.123020 76 153 0
-0.040434 0.473481 -0.281626 76 153 0
-0.462942 0.417649 -0.292209 76 153 0
0.165856 0.473481 -0.397395 76 153 0
0.003077 -0.304923 -0.259012 0 127 127
0.337374 -0.357049 -0.260042 0 127 127
0.052417 -0.304923 -0.267675 0 127 127
-0.387753 -0.304923 -0.073736 0 127 127
-0.112075 0.473481 -0.271789 76 153 0
0.265414 0.473481 0.457938 76 153 0
-0.341767 0.421356 0.168516 76 153 0
0.028461 0.421356 0.339492 76 153 0
0.022603 0.340936 0.548484 153 0 76
-0.049948 -0.357049 0.360940 0 127 127
-0.002168 -0.357049 0.198316 0 127 127
-0.085603 -0.658921 0.585834 0 255 0
0.322181 0.421356 0.318598 76 153 0
0.282002 -0.304923 -0.075918 0 127 127
-0.503024 -0.152947 -0.257456 76 153 0
0.075809 0.473481 -0.089216 76 153 0
-0.342864 -0.357049 0.308036 0 127 127
-0.080407 0.473481 -0.399059 76 153 0
0.176359 -0.357049 0.348113 0 127 127
0.085321 0.421356 -0.052843 76 153 0
0.156450 -0.304923 -0.348902 0 127 127
-0.087615 0.421356 0.436930 76 153 0
-0.482895 -0.646999 -0.312249 204 51 127
-0.087249 -0.629160 0.524189 0 255 0
0.189770 0.421356 -0.418420 76 153 0
-0.474723 -0.119850 -0.256816 76 153 0
0.409440 -0.357049 -0.049176 0 127 127
-0.252126 -0.304923 0.394966 0 127 127
0.221260 -0.304923 0.370862 0 127 127
0.454045 -0.551355 -0.271022 127 127 0
0.033625 0.421356 0.294475 76 153 0
-0.293323 0.473481 0.330406 76 153 0
-0.077492 -0.304923 -0.077880 0 127 127
-0.477622 -0.304923 0.032077 0 127 127
-0.244722 -0.304923 -0.172494 0 127 127
0.421707 -0.357049 -0.102129 0 127 127
0.505894 -0.304923 0.089975 0 127 127
0.502615 0.473481 0.094535 76 153 0
-0.078774 -0.357049 0.132886 0 127 127
0.458171 -0.407701 -0.260766 76 0 153
0.221480 -0.304923 0.477581 0 127 127
0.464327 -0.356270 0.185013 0 127 127
0.259738 -0.357049 -0.108776 0 127 127
0.422747 0.473481 -0.029982 76 153 0
0.241820 0.473481 -0.075680 76 153 0
0.094871 -0.357049 0.256246 0 127 127
0.256446 0.473481 -0.414595 76 153 0
-0.425187 0.421356 -0.130083 76 153 0
-0.049745 -0.304923 0.525028 0 127 127
-0.514684 0.457287 -0.272463 76 153 0
0.155026 0.421356 0.119619 76 153 0
-0.195854 -0.304923 0.493915 0 127 127
-0.351529 -0.304923 0.236161 0 127 127
0.318454 -0.357049 0.126581 0 127 127
0.142480 0.421546 -0.487199 76 153 0
0.404566 0.473481 0.064713 76 153 0
-0.021871 0.421356 -0.329195 76 153 0
-0.240235 -0.304923 -0.399601 0 127 127
0.504339 -0.292803 -0.280969 76 0 153
-0.015203 0.436696 -0.533224 76 153 0
0.035096 -0.357049 -0.105141 0 127 127
0.423820 0.421356 -0.125789 76 153 0
-0.100061 0.447965 -0.543064 76 153 0
0.249381 0.473481 0.221462 76 153 0
0.479733 -0.304923 -0.132587 0 127 127
-0.185262 -0.344840 -0.495854 0 127 127
-0.507165 0.439363 -0.184039 76 153 0
-0.281886 0.421356 0.045167 76 153 0
-0.364163 0.421356 -0.275577 76 153 0
0.336474 -0.304923 -0.193422 0 127 127
-0.543373 -0.713779 -0.369921 0 0 255
-0.325318 -0.357049 -0.119222 0 127 127
0.222838 0.421356 0.238586 76 153 0
0.328955 -0.357049 -0.112471 0 127 127
-0.318449 0.473481 0.190918 76 153 0
-0.029557 -0.357049 0.056248 0 127 127
-0.223107 -0.304923 -0.280423 0 127 127
0.020290 -0.304923 -0.482542 0 127 127
-0.449637 0.473481 -0.227027 76 153 0
-0.481061 0.339613 -0.254263 76 153 0
-0.011532 -0.304923 0.291839 0 127 127
0.354738 -0.650917 -0.165316 127 0 127
0.126178 0.473481 -0.523136 76 153 0
0.076720 -0.350274 -0.513787 0 127 127
-0.238420 0.473481 0.373952 76 153 0
0.352307 -0.304923 -0.014162 0 127 127
0.153513 -0.304923 -0.237727 0 127 127
0.035942 0.473481 -0.471923 76 153 0
0.195647 -0.304923 0.093622 0 127 127
0.335811 0.448011 0.424737 76 153 0
0.402716 -0.675871 -0.264756 127 0 127
-0.416146 0.473481 -0.106881 76 153 0
0.317180 -0.304923 0.428966 0 127 127
0.293252 -0.304923 0.289058 0 127 127
-0.439581 -0.348988 -0.284141 0 127 127
0.190103 0.421356 0.162519 76 153 0
-0.248004 0.421356 -0.397309 76 153 0
-0.137427 0.473481 0.219071 76 153 0
-0.485389 0.365216 -0.308652 76 153 0
-0.450007 0.473481 -0.148831 76 153 0
-0.281032 0.473481 -0.131452 76 153 0
0.121121 0.473481 -0.306441 76 153 0
0.125929 0.421356 -0.440922 76 153 0
0.315975 0.473481 -0.237480 76 153 0
-0.046438 0.473481 0.313793 76 153 0
-0.134111 -0.588065 0.538574 0 255 0
-0.222613 -0.304923 -0.443011 0 127 127
0.271262 -0.357049 0.098017 0 127 127
0.298699 0.473481 -0.161046 76 153 0
0.067553 0.473481 -0.229306 76 153 0
0.460414 -0.162953 -0.259038 76 0 153
-0.325413 0.473481 0.027222 76 153 0
-0.380833 -0.357049 0.251706 0 127 127
-0.301375 0.421356 -0.064315 76 153 0
0.495860 -0.567641 -0.297927 127 127 0
-0.053051 -0.304923 -0.140581 0 127 127
0.334410 -0.304923 0.333632 0 127 127
0.161614 -0.304923 0.306273 0 127 127
0.385933 -0.637438 -0.200826 127 0 127
-0.018150 -0.357049 -0.132607 0 127 127
-0.264159 0.473481 -0.470042 76 153 0
-0.027852 -0.171926 0.568034 153 0 76
-0.056990 0.473481 -0.149869 76 153 0
0.489518 0.328734 -0.306070 76 0 153
-0.540511 -0.657789 -0.366438 0 0 255
0.012571 0.452290 -0.557612 76 153 0
0.190188 -0.304923 0.437835 0 127 127
0.471737 -0.339937 0.235200 0 127 127
-0.388886 0.421356 0.204151 76 153 0
0.044039 0.473481 -0.264434 76 153 0
0.434041 0.422210 0.248186 76 153 0
-0.305245 0.473481 0.430658 76 153 0
-0.022092 0.421356 0.299752 76 153 0
-0.028421 0.473481 -0.176686 76 153 0
0.064879 -0.304923 -0.114206 0 127 127
-0.477215 0.421356 -0.116882 76 153 0
-0.029920 -0.286516 0.540498 153 0 76
0.139505 0.421356 0.351304 76 153 0
0.448678 0.421356 0.038099 76 153 0
-0.285408 -0.357049 0.092438 0 127 127
-0.131618 -0.304923 -0.041249 0 127 127
0.373549 -0.357049 0.160583 0 127 127
-0.266642 0.421356 -0.064482 76 153 0
-0.326750 -0.304923 -0.001612 0 127 127
-0.317412 -0.357049 0.268089 0 127 127
-0.218490 -0.304923 0.360307 0 127 127
-0.115636 0.421356 0.232211 76 153 0
-0.299017 -0.304923 0.068726 0 127 127
0.503754 0.473481 -0.114294 76 153 0
0.093939 -0.304923 0.081786 0 127 127
-0.427642 -0.357049 -0.177336 0 127 127
0.098245 0.421356 -0.352820 76 153 0
-0.079494 -0.357049 -0.422501 0 127 127
-0.088565 -0.357049 -0.380087 0 127 127
-0.026210 0.473481 0.250756 76 153 0
-0.088127 -0.708736 0.538574 0 255 0
0.196325 -0.304923 -0.240271 0 127 127
0.231609 0.473481 0.272358 76 153 0
-0.448231 -0.357049 -0.120020 0 127 127
-0.030810 -0.496247 0.561223 255 0 0
0.490199 -0.284285 -0.257294 76 0 153
0.538674 0.447424 0.048762 76 153 0
0.000173 0.473481 -0.482316 76 153 0
-0.236455 -0.304923 0.460786 0 127 127
0.237252 -0.304923 0.276828 0 127 127
-0.152751 -0.304923 -0.366664 0 127 127
-0.138610 0.473481 0.044089 76 153 0
0.398670 0.473481 0.121099 76 153 0
0.365250 0.473481 -0.362942 76 153 0
-0.509050 -0.701628 -0.312785 0 0 255
-0.526611 -0.304923 -0.184106 0 127 127
-0.080132 -0.703902 0.566374 0 255 0
-0.529990 -0.304923 -0.032687 0 127 127
0.500995 -0.243977 -0.294828 76 0 153
-0.357544 -0.357049 0.358476 0 127 127
0.270590 -0.304923 0.417809 0 127 127
0.468588 -0.631568 -0.257181 127 0 127
0.150637 0.421356 -0.424452 76 153 0
-0.022379 -0.304923 0.201754 0 127 127
-0.436173 -0.351447 0.275137 0 127 127
0.341813 -0.357049 0.266149 0 127 127
0.012419 -0.173271 0.530805 153 0 76
0.490330 0.024073 -0.257356 76 0 153
0.162881 -0.304923 0.359584 0 127 127
0.139632 -0.304923 -0.185411 0 127 127
-0.038581 0.438174 0.526691 76 153 0
-0.010962 0.143409 0.525431 153 0 76
-0.251389 0.421356 0.282874 76 153 0
0.090132 -0.357049 0.050413 0 127 127
0.365562 -0.719160 -0.234777 127 0 127
0.090008 -0.357049 0.415220 0 127 127
0.019363 0.473481 -0.086084 76 153 0
-0.241958 0.421356 -0.353869 76 153 0
-0.351836 -0.330569 -0.426083 0 127 127
-0.335409 0.473481 -0.257000 76 153 0
-0.350101 0.422049 -0.373473 76 153 0
-0.328314 -0.357049 -0.057481 0 127 127
0.493768 0.473481 -0.058826 76 153 0
-0.400673 -0.304923 0.359289 0 127 127
-0.145373 -0.357049 -0.397297 0 127 127
-0.560236 -0.610762 -0.346653 0 0 255
0.063596 0.473481 -0.035272 76 153 0
