ply
format ascii 1.0
element vertex 1258
property float x
property float y
property float z
property uchar red
property uchar green
property uchar blue
end_header
-0.018757 0.301961 0.528472 153 0 76
-0.030065 -0.357049 0.190579 0 127 127
-0.398867 0.473481 0.226207 76 153 0
-0.126122 -0.304923 -0.124207 0 127 127
-0.016287 0.473481 0.388594 76 153 0
0.406572 0.421356 0.005474 76 153 0
0.003330 -0.304923 0.113844 0 127 127
-0.179560 -0.357049 0.333183 0 127 127
-0.068009 -0.634913 0.559824 255 0 0
0.051719 -0.304923 -0.411564 0 127 127
0.240254 -0.331802 -0.491540 0 127 127
-0.419395 0.421356 -0.204226 76 153 0
0.421902 -0.304923 0.303995 0 127 127
-0.465969 0.331499 -0.264630 76 153 0
-0.222164 0.473481 0.264967 76 153 0
-0.422856 0.421356 0.093132 76 153 0
-0.192383 -0.304923 0.076303 0 127 127
-0.296788 -0.304923 -0.084891 0 127 127
0.376258 -0.339638 -0.376695 0 127 127
-0.037815 -0.304923 -0.243421 0 127 127
0.165692 0.440055 0.504062 76 153 0
0.121001 -0.357049 0.325147 0 127 127
0.265299 -0.304923 0.345645 0 127 127
0.298705 -0.304923 -0.118407 0 127 127
-0.115602 -0.357049 0.420679 0 127 127
-0.390887 0.473481 -0.216801 76 153 0
0.462978 0.390076 -0.305729 76 0 153
-0.517084 -0.667471 -0.337926 0 0 255
-0.032176 -0.071763 0.547436 153 0 76
-0.039877 0.421356 0.288993 76 153 0
-0.297120 0.421356 -0.022458 76 153 0
-0.401709 -0.357049 0.295844 0 127 127
-0.235340 -0.304923 0.131511 0 127 127
0.043425 -0.357049 -0.487478 0 127 127
-0.244430 0.473481 -0.335980 76 153 0
0.407686 -0.304923 -0.135462 0 127 127
-0.268257 0.421356 -0.276732 76 153 0
0.450038 0.172871 -0.289471 76 0 153
-0.144291 0.421356 -0.057761 76 153 0
-0.181471 -0.357049 -0.270507 0 127 127
-0.165415 -0.731780 0.538574 0 255 0
-0.505229 0.116192 -0.303018 76 153 0
-0.363447 0.473481 0.258688 76 153 0
0.379442 -0.720404 -0.245976 127 0 127
-0.447346 0.473481 0.298259 76 153 0
-0.334037 0.421356 0.038226 76 153 0
-0.527611 -0.304923 0.085896 0 127 127
-0.442190 0.473481 0.095873 76 153 0
0.009830 -0.333682 0.522552 153 0 76
0.318627 -0.357049 -0.271131 0 127 127
-0.422482 -0.357049 0.080267 0 127 127
0.102466 -0.357049 0.017808 0 127 127
-0.025222 -0.121264 0.533614 153 0 76
0.244830 -0.357049 -0.413586 0 127 127
0.107226 -0.357049 0.270312 0 127 127
-0.462601 -0.304923 -0.193158 0 127 127
-0.488626 -0.613703 -0.290710 0 0 255
0.228324 -0.357049 -0.348543 0 127 127
0.093201 -0.304923 0.212604 0 127 127
0.231059 0.421356 -0.180619 76 153 0
-0.422746 0.473481 0.241274 76 153 0
0.050714 0.473481 -0.028827 76 153 0
0.028884 -0.304923 0.489245 0 127 127
0.373980 -0.304923 -0.021558 0 127 127
0.376124 0.473481 -0.136563 76 153 0
0.245215 0.421356 0.168068 76 153 0
-0.078754 -0.787215 0.539116 0 255 0
-0.540744 -0.629280 -0.338898 0 0 255
0.181334 0.473481 0.112857 76 153 0
0.041014 -0.304923 0.362938 0 127 127
-0.273634 -0.304923 0.365092 0 127 127
-0.102304 -0.304923 0.078873 0 127 127
-0.004655 -0.357049 0.282842 0 127 127
0.473760 0.473481 0.205304 76 153 0
0.102098 -0.304923 0.426530 0 127 127
-0.215651 0.473481 0.166443 76 153 0
0.362417 -0.357049 -0.192876 0 127 127
-0.314172 -0.304923 0.138649 0 127 127
0.058519 -0.357049 -0.192182 0 127 127
-0.139809 -0.716273 0.546969 0 255 0
0.390296 -0.357049 0.101867 0 127 127
0.169897 -0.357049 -0.388319 0 127 127
-0.110699 -0.675321 0.585834 0 255 0
-0.431229 0.421356 0.181166 76 153 0
-0.508053 0.304129 -0.300496 76 153 0
0.189163 0.421356 0.281176 76 153 0
-0.233178 0.421356 0.281618 76 153 0
-0.610790 -0.743621 -0.412326 0 0 255
-0.375438 0.473481 -0.367866 76 153 0
0.459920 0.473481 -0.115234 76 153 0
0.204357 0.467769 -0.516818 76 153 0
-0.059172 -0.304923 0.427780 0 127 127
0.236840 -0.357049 -0.272898 0 127 127
0.234651 -0.357049 0.366444 0 127 127
0.477898 -0.304923 -0.091678 0 127 127
-0.479785 -0.627134 -0.263841 204 51 127
-0.094817 -0.357049 -0.307301 0 127 127
-0.400512 0.473481 0.196899 76 153 0
-0.360115 -0.304923 0.214228 0 127 127
0.268441 0.421356 0.211952 76 153 0
-0.152440 -0.304923 -0.381308 0 127 127
-0.059574 0.421356 0.189277 76 153 0
-0.026579 0.421356 0.017223 76 153 0
-0.065667 0.473481 0.479280 76 153 0
0.216406 -0.357049 -0.016921 0 127 127
0.109887 0.473481 -0.067619 76 153 0
0.246306 0.471462 -0.499441 76 153 0
-0.367327 -0.357049 0.087209 0 127 127
-0.434249 -0.357049 -0.238220 0 127 127
-0.024815 -0.017603 0.533137 153 0 76
0.109619 0.421356 -0.376234 76 153 0
0.135948 -0.357049 -0.158442 0 127 127
-0.285947 0.473481 0.282148 76 153 0
-0.046499 -0.357049 -0.141636 0 127 127
0.300863 -0.352649 -0.414959 0 127 127
-0.471483 -0.048456 -0.303037 76 153 0
0.364255 -0.357049 0.074588 0 127 127
-0.497707 0.395558 -0.254944 76 153 0
-0.116336 0.473481 0.304482 76 153 0
0.365871 -0.763176 -0.174299 127 0 127
0.012670 -0.686028 0.563128 0 255 0
0.036868 0.473481 -0.556111 76 153 0
0.270202 -0.357049 -0.248042 0 127 127
-0.473394 -0.520622 -0.258883 204 51 127
0.267960 -0.357049 0.403342 0 127 127
-0.481871 0.193589 -0.254016 76 153 0
-0.315998 -0.324696 -0.462963 0 127 127
0.411434 -0.357049 0.245716 0 127 127
-0.577806 -0.733604 -0.411829 0 0 255
0.020714 -0.249157 0.541849 153 0 76
0.071485 0.473481 0.094545 76 153 0
0.244369 -0.357049 0.114065 0 127 127
0.114636 0.473481 -0.339993 76 153 0
-0.055423 -0.357049 0.405929 0 127 127
0.483260 0.473481 0.005124 76 153 0
-0.307658 -0.304923 0.314531 0 127 127
-0.488015 0.229828 -0.253297 76 153 0
0.468346 -0.208374 -0.307983 76 0 153
0.412887 0.435090 0.317722 76 153 0
-0.158364 -0.769718 0.564364 0 255 0
-0.180085 -0.357049 0.459285 0 127 127
0.017027 -0.357049 -0.031612 0 127 127
-0.491103 -0.405749 -0.308617 76 153 0
-0.550394 0.473481 0.090426 76 153 0
0.488119 -0.386385 -0.306833 76 0 153
0.007873 0.421356 0.084047 76 153 0
-0.085049 -0.357049 -0.136696 0 127 127
0.061867 0.473481 -0.429581 76 153 0
0.092137 -0.357049 -0.377335 0 127 127
0.151878 -0.304923 0.304516 0 127 127
0.454415 0.427191 -0.237077 76 153 0
0.148247 0.421356 -0.048916 76 153 0
-0.199577 0.473481 -0.520571 76 153 0
0.199557 0.421356 -0.264951 76 153 0
0.486152 -0.357049 0.072564 0 127 127
-0.009633 -0.304923 0.166282 0 127 127
-0.556537 -0.578386 -0.342955 0 0 255
0.523446 -0.341869 -0.027933 0 127 127
-0.183953 -0.304923 0.252252 0 127 127
0.408243 -0.685975 -0.244210 127 0 127
-0.469746 -0.324732 0.298727 0 127 127
0.048868 0.421356 0.038915 76 153 0
0.515760 -0.305960 -0.195014 0 127 127
-0.211650 0.421356 -0.297359 76 153 0
-0.036932 -0.325076 0.543428 153 0 76
-0.024847 0.051570 0.533175 153 0 76
0.316655 -0.671764 -0.165972 127 0 127
-0.032592 -0.203319 0.551318 153 0 76
0.248767 -0.304923 0.104281 0 127 127
-0.476238 -0.706363 -0.288214 0 0 255
-0.358383 0.421356 -0.205283 76 153 0
0.020558 0.473481 0.201084 76 153 0
-0.016467 -0.429230 0.527274 153 0 76
0.099398 0.473481 0.476930 76 153 0
-0.213426 -0.357049 0.014820 0 127 127
0.412123 -0.304923 -0.262596 0 127 127
-0.089663 -0.304923 0.246854 0 127 127
-0.147187 -0.304923 -0.512365 0 127 127
0.419117 0.473481 0.200302 76 153 0
-0.522270 -0.585858 -0.310033 0 0 255
-0.535767 -0.700072 -0.391319 0 0 255
0.014464 -0.304923 -0.083034 0 127 127
-0.513682 0.154443 -0.292363 76 153 0
0.046112 0.421356 0.240287 76 153 0
0.337092 -0.357049 0.203450 0 127 127
-0.235606 0.473481 0.018633 76 153 0
0.409078 0.473481 -0.259974 76 153 0
0.173494 0.421356 0.313732 76 153 0
0.347044 -0.327641 0.420916 0 127 127
-0.317023 0.440150 0.431927 76 153 0
-0.021634 0.108751 0.530333 153 0 76
-0.342927 -0.304923 0.130017 0 127 127
-0.467708 0.473481 -0.101529 76 153 0
0.392926 -0.683321 -0.171125 127 0 127
0.113017 -0.304923 -0.276494 0 127 127
-0.317587 -0.357049 0.373530 0 127 127
0.312646 -0.357049 -0.241531 0 127 127
-0.271844 -0.357049 -0.161473 0 127 127
-0.221639 0.441679 -0.494796 76 153 0
-0.112135 -0.304923 -0.083273 0 127 127
-0.197277 0.473481 -0.203808 76 153 0
0.512569 -0.304923 0.085163 0 127 127
0.271956 0.473481 -0.034775 76 153 0
0.072990 -0.357049 0.282493 0 127 127
-0.282034 -0.353595 -0.431729 0 127 127
-0.220749 -0.357049 -0.094006 0 127 127
-0.051922 -0.586276 0.565337 0 255 0
0.142673 -0.357049 -0.339118 0 127 127
0.460510 0.473481 0.067455 76 153 0
-0.232145 -0.341087 0.475855 0 127 127
-0.102452 0.421356 0.377138 76 153 0
-0.072081 0.421356 -0.217427 76 153 0
0.057552 -0.304923 -0.229560 0 127 127
-0.050642 -0.357049 0.494876 0 127 127
0.305768 -0.357049 -0.079977 0 127 127
0.088748 0.473481 0.324169 76 153 0
-0.063761 -0.672302 0.566374 0 255 0
0.170631 -0.304923 0.137165 0 127 127
-0.211602 -0.357049 -0.462739 0 127 127
0.046865 -0.357049 0.186910 0 127 127
0.504532 0.435339 -0.137891 76 153 0
0.473211 -0.642325 -0.296043 127 127 0
-0.211172 -0.357049 0.228562 0 127 127
0.145037 -0.357049 -0.089879 0 127 127
0.156676 0.473481 -0.444199 76 153 0
-0.035468 0.473481 0.290854 76 153 0
0.449540 -0.128573 -0.287439 76 0 153
-0.342721 -0.357049 -0.235037 0 127 127
0.277131 -0.304923 -0.140858 0 127 127
-0.039826 -0.304923 0.487480 0 127 127
0.430944 -0.332458 0.323241 0 127 127
0.336671 -0.357049 0.090144 0 127 127
0.126119 -0.357049 0.145998 0 127 127
-0.528602 -0.330172 -0.166415 0 127 127
0.315459 -0.357049 -0.311977 0 127 127
0.016891 0.357987 0.569653 153 0 76
0.063939 -0.357049 0.236232 0 127 127
-0.058781 -0.357049 -0.231284 0 127 127
-0.145514 0.421356 0.163127 76 153 0
-0.378731 0.421356 0.054962 76 153 0
-0.232837 0.453069 0.502007 76 153 0
0.312244 -0.304923 -0.277047 0 127 127
-0.544496 0.473481 0.014590 76 153 0
-0.495265 0.473481 0.018805 76 153 0
0.218902 -0.357049 0.273207 0 127 127
-0.266688 0.473481 0.236492 76 153 0
-0.127880 0.473481 0.469979 76 153 0
-0.016075 -0.304923 -0.304923 0 127 127
0.414372 0.421356 0.153361 76 153 0
0.328297 -0.729064 -0.165673 127 0 127
0.210120 -0.357049 0.400834 0 127 127
-0.062138 -0.304923 -0.303590 0 127 127
-0.077838 -0.357049 -0.004499 0 127 127
0.153472 0.421356 0.107239 76 153 0
0.341470 -0.357049 -0.368991 0 127 127
0.376605 0.473481 0.104841 76 153 0
-0.113737 -0.647163 0.519114 0 255 0
-0.044030 0.421356 -0.341835 76 153 0
0.298032 0.473481 -0.467207 76 153 0
0.010367 0.421356 0.419847 76 153 0
0.457034 0.421356 -0.119502 76 153 0
0.193660 -0.304923 0.188541 0 127 127
0.526701 -0.340837 0.000504 0 127 127
-0.353601 0.421356 0.281270 76 153 0
0.241565 -0.304923 0.195968 0 127 127
-0.048918 0.421356 0.373319 76 153 0
-0.455703 -0.357049 -0.182671 0 127 127
-0.404810 -0.357049 -0.053956 0 127 127
-0.410246 -0.304923 0.303987 0 127 127
0.396050 0.421356 0.244371 76 153 0
-0.594910 -0.649718 -0.365700 0 0 255
0.442792 -0.304923 0.276774 0 127 127
-0.026362 0.421356 -0.151443 76 153 0
-0.300433 -0.352704 0.415062 0 127 127
-0.284367 0.421356 -0.109865 76 153 0
-0.073000 -0.304923 0.058079 0 127 127
-0.002237 -0.336215 0.580066 153 0 76
-0.252545 -0.304923 -0.314697 0 127 127
0.074885 0.473481 0.194056 76 153 0
-0.511012 -0.519276 -0.294586 204 51 127
0.540526 0.453111 0.099064 76 153 0
-0.234594 -0.304923 -0.455648 0 127 127
0.426333 -0.684944 -0.282253 127 0 127
0.446135 -0.649022 -0.252532 127 0 127
0.014017 -0.437445 0.572779 153 0 76
0.504280 -0.372725 -0.278849 76 0 153
0.358732 0.421356 0.237212 76 153 0
0.398783 -0.790254 -0.210886 127 0 127
0.136536 0.473481 0.113440 76 153 0
0.001333 0.052829 0.525464 153 0 76
-0.045366 -0.357049 0.448992 0 127 127
-0.452191 0.421356 -0.072497 76 153 0
0.290465 0.421356 -0.285913 76 153 0
-0.300717 0.421356 0.174096 76 153 0
-0.220252 -0.357049 -0.183000 0 127 127
-0.309732 -0.304923 -0.313316 0 127 127
-0.255977 0.421356 0.009838 76 153 0
0.240555 -0.357049 0.184792 0 127 127
0.402833 -0.304923 0.179414 0 127 127
0.452579 0.111304 -0.295316 76 0 153
-0.362412 -0.304923 0.046945 0 127 127
0.342032 -0.625290 -0.160151 127 0 127
-0.193925 -0.304923 -0.171161 0 127 127
-0.228028 0.421356 -0.169155 76 153 0
0.199612 -0.357038 -0.464804 0 127 127
-0.345517 0.473481 -0.154392 76 153 0
-0.573161 -0.717995 -0.331732 0 0 255
0.457224 -0.441112 -0.261715 76 0 153
-0.146910 -0.768947 0.538574 0 255 0
-0.324647 -0.340146 0.422157 0 127 127
0.297991 0.452024 0.459819 76 153 0
0.048594 0.421356 -0.121151 76 153 0
-0.313065 0.421356 -0.264046 76 153 0
-0.001943 0.421356 -0.106371 76 153 0
0.060279 -0.342439 0.520680 0 127 127
-0.030918 0.473481 0.195670 76 153 0
0.100860 0.473481 -0.275074 76 153 0
-0.219362 -0.357049 0.449329 0 127 127
-0.100346 -0.357049 0.010883 0 127 127
-0.388191 -0.304923 0.061496 0 127 127
0.388429 -0.357049 -0.286983 0 127 127
-0.054410 -0.357049 -0.090389 0 127 127
0.147179 0.473481 0.216666 76 153 0
0.029537 0.473481 -0.409798 76 153 0
-0.171548 0.473481 -0.155319 76 153 0
0.274350 0.421356 -0.043974 76 153 0
0.351148 -0.357049 -0.330987 0 127 127
0.073562 0.421356 0.240268 76 153 0
0.476879 -0.525622 -0.254222 127 127 0
-0.159273 -0.357049 -0.177129 0 127 127
0.396406 -0.304923 0.298813 0 127 127
-0.277483 -0.357049 -0.027169 0 127 127
0.451008 -0.368326 -0.270877 76 0 153
-0.040436 -0.304923 -0.156879 0 127 127
0.465269 -0.219238 -0.256159 76 0 153
0.024052 0.473481 -0.345987 76 153 0
-0.312676 0.473481 -0.463258 76 153 0
0.177116 -0.357049 0.024950 0 127 127
-0.171526 -0.622042 0.566374 0 255 0
-0.369713 -0.357049 0.342044 0 127 127
-0.116388 -0.354557 -0.499582 0 127 127
-0.015309 -0.357049 -0.499654 0 127 127
-0.395789 -0.304923 -0.285246 0 127 127
-0.524403 -0.342813 -0.097535 0 127 127
-0.495074 -0.753610 -0.311139 0 0 255
0.481416 -0.485624 -0.277707 127 127 0
0.241467 0.473481 0.001231 76 153 0
0.179724 0.473481 0.172230 76 153 0
0.330440 0.421356 -0.320870 76 153 0
-0.498818 -0.443919 -0.255329 76 153 0
-0.554612 -0.676681 -0.383601 0 0 255
0.473734 -0.304923 -0.117288 0 127 127
-0.239987 -0.357049 -0.274702 0 127 127
0.023446 0.421356 0.154866 76 153 0
-0.447267 0.438937 -0.300661 76 153 0
-0.017077 -0.665252 0.538574 255 0 0
-0.041385 -0.697416 0.558450 255 0 0
-0.238442 -0.307075 -0.506744 0 127 127
0.393573 -0.357049 0.296556 0 127 127
-0.406119 0.422051 -0.312113 76 153 0
-0.137654 0.421356 -0.145139 76 153 0
0.012273 -0.062291 0.530680 153 0 76
0.131899 0.473481 0.381143 76 153 0
-0.029711 -0.304923 0.338245 0 127 127
0.463342 0.249379 -0.257209 76 0 153
-0.085745 -0.304923 -0.404968 0 127 127
0.022271 0.226305 0.546859 153 0 76
0.221357 0.473481 -0.451395 76 153 0
0.427677 0.473481 0.293567 76 153 0
0.529171 -0.326815 0.139244 0 127 127
0.470076 -0.304923 -0.225773 0 127 127
0.105161 0.428348 -0.507316 76 153 0
0.415549 0.421356 -0.243918 76 153 0
-0.471941 -0.357049 -0.091412 0 127 127
0.210672 0.421356 0.354574 76 153 0
0.431993 0.473481 -0.029119 76 153 0
-0.451739 -0.357049 -0.145237 0 127 127
-0.092565 -0.304923 -0.535526 0 127 127
0.501864 0.055616 -0.269918 76 0 153
-0.304223 -0.357049 -0.112356 0 127 127
-0.510507 -0.356961 -0.297631 76 153 0
-0.481245 -0.341732 -0.235399 0 127 127
0.267788 -0.304923 0.377558 0 127 127
0.473540 -0.347230 -0.253913 76 0 153
0.333757 -0.304923 0.071907 0 127 127
-0.024644 0.473481 0.070555 76 153 0
0.173580 -0.304923 0.495172 0 127 127
-0.431358 -0.304923 0.227030 0 127 127
0.451512 -0.681934 -0.257486 127 127 0
-0.344986 0.473481 -0.343278 76 153 0
0.034865 -0.304923 0.142550 0 127 127
0.236356 0.421356 -0.302909 76 153 0
0.395443 -0.761268 -0.198160 127 0 127
0.084627 0.421356 -0.306224 76 153 0
-0.119236 -0.357049 0.123671 0 127 127
-0.273826 -0.357049 0.068068 0 127 127
-0.223729 -0.357049 -0.416360 0 127 127
-0.285682 0.473481 -0.409795 76 153 0
0.207987 -0.332249 0.497075 0 127 127
-0.228903 0.421356 -0.219169 76 153 0
0.281563 0.421356 0.365622 76 153 0
0.156160 -0.357049 0.285178 0 127 127
0.224982 -0.304923 -0.349540 0 127 127
-0.315064 0.473481 -0.062861 76 153 0
0.424426 -0.357049 -0.171400 0 127 127
0.181792 0.473481 -0.047385 76 153 0
0.143571 0.473481 0.337555 76 153 0
-0.292972 0.421356 -0.066114 76 153 0
0.501807 0.164904 -0.269813 76 0 153
0.348858 -0.357049 -0.275322 0 127 127
-0.440614 -0.330707 -0.334715 0 127 127
-0.230069 -0.357049 -0.068081 0 127 127
0.290060 -0.357049 0.179208 0 127 127
-0.044612 -0.357049 0.132508 0 127 127
-0.075026 -0.304923 -0.118835 0 127 127
0.536626 0.452820 -0.122366 76 153 0
0.425453 0.473481 -0.312019 76 153 0
-0.275370 -0.304923 0.283449 0 127 127
-0.465515 -0.357049 0.107627 0 127 127
0.267503 0.473481 -0.460918 76 153 0
-0.273989 -0.357049 0.342611 0 127 127
-0.021850 0.031800 0.574430 153 0 76
-0.495194 -0.049847 -0.254096 76 153 0
-0.131308 -0.304923 0.106049 0 127 127
-0.319764 0.421356 -0.071348 76 153 0
0.179717 0.421356 0.194888 76 153 0
0.044161 0.473481 0.307226 76 153 0
-0.217957 0.421356 -0.379748 76 153 0
-0.330232 0.473481 -0.386502 76 153 0
0.034129 0.473481 -0.151510 76 153 0
0.457666 -0.147724 -0.261248 76 0 153
0.206057 -0.357049 0.110722 0 127 127
0.145906 -0.304923 0.210294 0 127 127
-0.254677 0.421356 0.180702 76 153 0
0.457013 0.422610 -0.211709 76 153 0
-0.052607 -0.304923 0.096296 0 127 127
0.460608 -0.589582 -0.301490 127 127 0
-0.384892 0.473481 0.042195 76 153 0
0.033922 0.421356 -0.176428 76 153 0
-0.321528 0.473481 0.143302 76 153 0
-0.095597 0.421356 -0.359958 76 153 0
0.122952 -0.304923 -0.034606 0 127 127
-0.513799 -0.452968 -0.292139 76 153 0
-0.096006 0.421356 -0.290093 76 153 0
-0.389386 -0.357049 -0.212653 0 127 127
0.205924 -0.357049 0.084230 0 127 127
0.132328 0.473481 -0.176798 76 153 0
-0.009093 -0.304923 0.217520 0 127 127
0.287856 0.473481 0.437879 76 153 0
-0.421646 -0.304923 0.251381 0 127 127
-0.318860 -0.357049 -0.284768 0 127 127
-0.310946 -0.357049 0.168984 0 127 127
0.006125 -0.304923 -0.166904 0 127 127
-0.077694 0.423658 0.500387 76 153 0
-0.297743 -0.304923 -0.110508 0 127 127
-0.084814 -0.304923 -0.345569 0 127 127
-0.066217 0.473481 0.373683 76 153 0
-0.405602 -0.304923 0.180927 0 127 127
-0.403472 -0.334774 -0.368214 0 127 127
0.454471 0.439324 0.267092 76 153 0
-0.025155 0.258628 0.533535 153 0 76
0.346052 -0.357049 -0.218552 0 127 127
-0.489974 0.425377 -0.167248 76 153 0
-0.098976 0.421356 0.058926 76 153 0
0.512005 0.473481 0.162846 76 153 0
0.009471 -0.059980 0.576182 153 0 76
-0.553282 -0.754929 -0.338191 0 0 255
0.283188 0.421356 -0.364608 76 153 0
0.482622 -0.340846 0.205134 0 127 127
-0.536198 -0.337234 0.077181 0 127 127
0.444981 -0.304923 -0.161378 0 127 127
-0.237721 -0.357049 0.087518 0 127 127
-0.447539 0.421356 0.136507 76 153 0
0.495624 0.473481 -0.156934 76 153 0
-0.075602 0.473481 0.348489 76 153 0
-0.006692 -0.357049 -0.072298 0 127 127
0.003679 0.473481 0.338433 76 153 0
0.173248 -0.304923 -0.527722 0 127 127
0.017564 -0.036544 0.568865 153 0 76
-0.081950 -0.304923 0.303671 0 127 127
0.537457 0.473481 0.055909 76 153 0
0.279768 0.473481 0.209106 76 153 0
0.022132 0.421356 0.254497 76 153 0
0.179950 -0.304923 0.248698 0 127 127
0.156921 -0.357049 0.073555 0 127 127
-0.181302 -0.746990 0.563980 0 255 0
-0.161732 0.445985 -0.525010 76 153 0
-0.031487 0.180516 0.560378 153 0 76
-0.002610 -0.485624 0.554949 153 0 76
0.451540 -0.357049 0.192948 0 127 127
0.198940 0.473481 -0.404219 76 153 0
-0.615496 -0.635219 -0.416846 0 0 255
0.029813 -0.304923 0.415449 0 127 127
0.059531 0.473481 0.052680 76 153 0
-0.235069 0.473481 -0.241008 76 153 0
-0.273913 -0.304923 -0.047739 0 127 127
-0.118928 -0.761032 0.538574 0 255 0
0.000433 -0.357049 0.255950 0 127 127
0.455577 -0.532442 -0.267092 127 127 0
-0.460617 0.462378 -0.280157 76 153 0
-0.322721 0.473481 -0.096557 76 153 0
-0.387096 0.473481 -0.313945 76 153 0
-0.300324 -0.304923 -0.377675 0 127 127
-0.550334 0.448205 0.040579 76 153 0
-0.009915 -0.304923 0.443852 0 127 127
0.162345 -0.304923 -0.478329 0 127 127
-0.529591 0.472423 0.178140 76 153 0
-0.104186 -0.304923 0.380085 0 127 127
0.402536 -0.652556 -0.239605 127 0 127
-0.119826 -0.357049 0.216528 0 127 127
-0.503437 -0.652190 -0.320422 204 51 127
0.437933 0.421356 -0.192603 76 153 0
-0.461852 0.192114 -0.272760 76 153 0
-0.556530 -0.304923 0.002907 0 127 127
-0.087611 0.421356 0.347040 76 153 0
0.369285 0.473481 -0.061647 76 153 0
-0.514145 0.435170 -0.270759 76 153 0
-0.212531 -0.304923 -0.216762 0 127 127
-0.089067 0.473481 -0.221549 76 153 0
-0.489222 0.032915 -0.308759 76 153 0
0.489320 0.025830 -0.306178 76 0 153
-0.390468 -0.357049 0.037348 0 127 127
-0.429226 0.473481 -0.259483 76 153 0
-0.227210 -0.304923 -0.263082 0 127 127
0.092539 0.473481 0.140116 76 153 0
0.309752 0.421356 -0.364559 76 153 0
0.385434 0.473481 0.375412 76 153 0
0.234670 -0.304923 -0.112953 0 127 127
-0.046765 0.473481 -0.149725 76 153 0
-0.484124 0.473481 0.256804 76 153 0
0.094710 -0.304923 0.154555 0 127 127
-0.006979 -0.155151 0.524839 153 0 76
-0.220166 -0.304923 -0.342020 0 127 127
-0.534711 -0.686046 -0.315588 0 0 255
-0.112190 0.445489 -0.536091 76 153 0
-0.090968 -0.304923 0.474273 0 127 127
0.318325 -0.329715 -0.448154 0 127 127
0.504221 0.374705 -0.284273 76 0 153
-0.432747 -0.357049 0.222400 0 127 127
-0.234196 -0.357049 0.199372 0 127 127
0.030996 -0.357049 0.028696 0 127 127
-0.066619 0.421356 -0.009731 76 153 0
0.440836 -0.660216 -0.209783 127 0 127
-0.494714 0.473481 0.210548 76 153 0
0.460450 0.421356 -0.006614 76 153 0
-0.266081 -0.357049 0.024212 0 127 127
0.186401 -0.304923 -0.291577 0 127 127
-0.245090 -0.304923 -0.410590 0 127 127
-0.095341 0.421356 0.159578 76 153 0
0.301226 -0.304923 -0.001370 0 127 127
-0.570389 -0.616949 -0.402802 0 0 255
-0.120770 -0.304923 -0.013217 0 127 127
-0.182954 0.421356 0.325385 76 153 0
-0.120549 0.473481 -0.251492 76 153 0
-0.385763 0.450042 0.394676 76 153 0
0.231292 -0.304923 -0.270147 0 127 127
0.409314 -0.304923 0.148850 0 127 127
-0.187329 0.421356 0.067493 76 153 0
-0.412284 -0.312647 0.372943 0 127 127
-0.514812 0.233239 -0.289214 76 153 0
-0.188271 -0.304923 -0.020098 0 127 127
-0.232671 0.473481 0.484882 76 153 0
0.444637 0.473481 -0.199097 76 153 0
0.484130 -0.450199 -0.254849 76 0 153
0.285999 0.435437 -0.443196 76 153 0
-0.088695 -0.657335 0.585834 0 255 0
-0.184949 -0.304923 -0.303012 0 127 127
0.058274 0.421356 -0.367685 76 153 0
0.503688 -0.530252 -0.284841 127 127 0
-0.190330 0.421356 -0.078543 76 153 0
-0.031021 0.129793 0.543154 153 0 76
0.011850 -0.577300 0.530020 255 0 0
0.052391 -0.357049 -0.451898 0 127 127
-0.117908 0.473481 0.167621 76 153 0
-0.487208 -0.535722 -0.308713 204 51 127
0.035581 -0.357049 0.476391 0 127 127
-0.293156 0.438733 -0.450962 76 153 0
0.071904 0.424193 -0.507989 76 153 0
0.347181 -0.357049 0.023470 0 127 127
-0.579558 -0.764942 -0.370170 0 0 255
0.301272 -0.357049 -0.004949 0 127 127
0.208759 -0.357049 -0.169858 0 127 127
0.210451 -0.304923 -0.373851 0 127 127
0.035652 0.431070 0.514786 76 153 0
-0.080390 -0.357049 0.319764 0 127 127
-0.402877 0.473481 -0.038487 76 153 0
0.068841 0.473481 -0.348004 76 153 0
0.474590 -0.304923 0.114055 0 127 127
-0.124140 -0.304923 0.535205 0 127 127
0.422296 -0.790024 -0.222422 127 0 127
0.503010 -0.348419 0.100592 0 127 127
-0.105301 0.473481 0.252160 76 153 0
0.362266 -0.304923 0.095347 0 127 127
0.515994 -0.334416 -0.149255 0 127 127
-0.134589 0.473481 0.251694 76 153 0
-0.382535 0.473481 -0.125554 76 153 0
-0.125750 -0.625247 0.538574 0 255 0
-0.272607 0.421356 -0.039157 76 153 0
0.489610 -0.100668 -0.306019 76 0 153
-0.126561 0.421356 0.478044 76 153 0
-0.486713 -0.169944 -0.253273 76 153 0
-0.129157 -0.357049 -0.171464 0 127 127
0.430422 -0.304923 -0.032541 0 127 127
0.363136 0.473481 -0.282593 76 153 0
-0.510645 -0.164103 -0.264586 76 153 0
-0.501179 -0.357049 -0.078795 0 127 127
-0.177966 0.473481 0.095906 76 153 0
-0.168673 -0.357049 0.202072 0 127 127
0.342093 0.421356 0.275995 76 153 0
-0.078070 -0.357049 0.108884 0 127 127
0.014457 0.473481 0.259115 76 153 0
-0.539351 -0.326921 -0.143854 0 127 127
-0.205926 0.473481 -0.117257 76 153 0
0.464143 0.091672 -0.256773 76 0 153
0.022825 0.323300 0.551307 153 0 76
-0.508237 -0.680143 -0.357813 0 0 255
0.372400 -0.328838 -0.403808 0 127 127
0.053744 0.473481 0.413780 76 153 0
0.315916 -0.357049 -0.144566 0 127 127
-0.312498 0.421356 0.023937 76 153 0
-0.465218 0.292115 -0.296346 76 153 0
-0.617948 -0.713335 -0.425690 0 0 255
0.310678 -0.304923 0.265356 0 127 127
-0.598584 -0.601757 -0.394876 0 0 255
0.020739 0.473481 -0.096741 76 153 0
-0.044430 0.421356 0.263500 76 153 0
0.317260 0.427110 -0.403797 76 153 0
-0.011330 -0.357049 -0.264869 0 127 127
-0.225257 -0.304923 0.334599 0 127 127
-0.440515 0.473481 0.152156 76 153 0
0.136923 0.421356 -0.313526 76 153 0
-0.298444 0.473481 0.304680 76 153 0
-0.030646 0.421356 0.482579 76 153 0
-0.036779 0.421356 0.104773 76 153 0
-0.262307 0.473481 0.404501 76 153 0
-0.504109 -0.597292 -0.259849 204 51 127
0.019596 -0.304923 -0.380066 0 127 127
0.281244 0.473481 0.408510 76 153 0
-0.258112 0.473481 0.468833 76 153 0
0.465288 0.065820 -0.256150 76 0 153
0.005754 0.433414 0.520864 76 153 0
0.510046 0.473481 -0.106793 76 153 0
0.195419 0.421356 0.143812 76 153 0
-0.075648 -0.304923 0.113340 0 127 127
0.347138 0.473481 0.021562 76 153 0
0.427052 -0.633547 -0.238547 127 127 0
-0.145994 -0.304923 0.388064 0 127 127
-0.046572 0.421356 0.431946 76 153 0
-0.528251 -0.316016 -0.188434 0 127 127
-0.341293 -0.357049 -0.051313 0 127 127
-0.568244 -0.581559 -0.378248 0 0 255
-0.347842 -0.357049 -0.097914 0 127 127
0.121244 -0.357049 -0.293889 0 127 127
-0.045992 -0.304923 -0.097312 0 127 127
0.140251 0.473481 0.506149 76 153 0
0.185878 -0.357049 0.158965 0 127 127
-0.178343 -0.304923 0.126559 0 127 127
0.328991 0.473481 -0.299004 76 153 0
0.021742 -0.315652 0.560289 153 0 76
-0.462250 0.329530 -0.290555 76 153 0
0.253893 -0.355784 -0.438894 0 127 127
-0.307323 0.473481 -0.293432 76 153 0
-0.495544 0.399422 -0.307793 76 153 0
-0.340741 -0.304923 -0.247969 0 127 127
-0.402725 0.473481 -0.150864 76 153 0
-0.280672 0.421356 -0.232439 76 153 0
0.215206 -0.355290 0.454305 0 127 127
0.018876 -0.081685 0.566745 153 0 76
-0.508201 -0.348598 -0.125492 0 127 127
0.465634 -0.304923 -0.067184 0 127 127
0.476885 0.156482 -0.309249 76 0 153
-0.115875 0.421356 0.245341 76 153 0
0.309608 0.473481 -0.232694 76 153 0
0.292066 -0.304923 -0.448246 0 127 127
-0.272698 -0.304923 0.395220 0 127 127
0.265849 0.473481 -0.419391 76 153 0
-0.512324 -0.595498 -0.332133 0 0 255
-0.555210 -0.304923 0.050273 0 127 127
0.054125 0.421356 -0.419085 76 153 0
-0.536692 -0.790936 -0.356592 0 0 255
0.486034 -0.304923 0.147525 0 127 127
-0.051010 -0.662503 0.519182 0 255 0
0.457554 -0.321459 -0.309743 76 0 153
-0.501543 -0.304923 -0.246089 0 127 127
0.169264 -0.304923 0.436109 0 127 127
-0.000361 0.421356 0.445946 76 153 0
0.189094 0.465342 0.516081 76 153 0
0.360390 0.473481 -0.229983 76 153 0
0.208215 -0.304923 0.279975 0 127 127
-0.489755 -0.485624 -0.283894 76 153 0
-0.524545 0.449563 -0.184593 76 153 0
-0.043339 -0.357049 0.069026 0 127 127
0.414496 0.426656 0.293654 76 153 0
-0.091742 -0.357049 0.221693 0 127 127
-0.326277 0.421356 0.126644 76 153 0
0.214537 -0.304923 -0.492661 0 127 127
-0.103003 -0.304923 -0.169057 0 127 127
0.326272 0.421356 0.144393 76 153 0
0.248763 -0.304923 0.079314 0 127 127
-0.007499 0.259125 0.580068 153 0 76
0.418951 0.473481 -0.360447 76 153 0
-0.009847 0.421356 0.112338 76 153 0
-0.498757 -0.336837 -0.213526 0 127 127
-0.087459 0.421356 0.223797 76 153 0
-0.476960 0.473481 0.067961 76 153 0
0.156277 0.421356 0.008995 76 153 0
0.078420 -0.357049 0.025479 0 127 127
-0.551518 -0.310001 -0.101014 0 127 127
-0.342392 -0.304923 0.250234 0 127 127
0.294617 -0.304923 0.171079 0 127 127
0.019427 -0.304923 -0.433147 0 127 127
-0.299938 0.473481 -0.187557 76 153 0
-0.507356 -0.691463 -0.326087 0 0 255
0.431240 -0.339289 -0.311424 0 127 127
0.392297 -0.304923 -0.113973 0 127 127
-0.011510 0.421356 0.221279 76 153 0
0.071157 -0.304923 -0.502638 0 127 127
-0.183559 -0.357049 -0.442586 0 127 127
0.092583 -0.357049 -0.335769 0 127 127
-0.206447 0.473481 0.310547 76 153 0
-0.384986 0.473481 0.277654 76 153 0
0.477261 -0.357049 -0.008080 0 127 127
0.284070 0.424454 0.416774 76 153 0
-0.509423 0.107906 -0.262983 76 153 0
-0.090286 -0.304923 0.221940 0 127 127
0.228566 -0.357049 0.329623 0 127 127
0.080857 -0.304923 -0.453086 0 127 127
0.505167 -0.352643 -0.041152 0 127 127
0.231141 0.421356 0.092373 76 153 0
0.343995 -0.304923 0.123017 0 127 127
0.278775 -0.304923 -0.179941 0 127 127
-0.132400 0.421356 0.077587 76 153 0
-0.418231 -0.357049 0.104840 0 127 127
0.210980 0.473481 0.199251 76 153 0
-0.130569 0.421356 -0.329750 76 153 0
0.369386 -0.357049 0.173504 0 127 127
0.257125 0.449600 -0.487385 76 153 0
-0.168109 0.473481 -0.317196 76 153 0
-0.246130 0.473481 -0.447163 76 153 0
-0.182866 -0.357049 -0.163080 0 127 127
0.228554 0.473481 0.428484 76 153 0
0.362697 -0.345357 0.370386 0 127 127
0.501463 0.423062 -0.033355 76 153 0
0.471786 0.421356 -0.072641 76 153 0
0.246315 -0.304923 -0.469050 0 127 127
-0.138550 -0.711616 0.584427 0 255 0
-0.234294 0.473481 -0.077854 76 153 0
-0.260032 -0.304923 0.255942 0 127 127
0.389492 0.455603 -0.395252 76 153 0
-0.124676 0.421356 0.299848 76 153 0
-0.418443 -0.304923 0.050528 0 127 127
0.277863 0.421356 0.014131 76 153 0
-0.264452 0.473481 -0.044313 76 153 0
-0.548945 -0.736572 -0.368366 0 0 255
-0.342047 -0.304923 0.357051 0 127 127
-0.236409 0.421356 -0.011603 76 153 0
-0.252888 -0.357049 0.315488 0 127 127
0.103001 -0.304923 0.277761 0 127 127
-0.506053 -0.335585 0.194071 0 127 127
-0.183419 0.432382 -0.494575 76 153 0
0.172786 0.421356 -0.042622 76 153 0
-0.352554 0.421356 -0.048269 76 153 0
0.259206 -0.357049 0.234355 0 127 127
-0.225058 0.473481 0.237013 76 153 0
-0.034031 -0.352073 -0.515160 0 127 127
-0.177980 0.421356 0.149161 76 153 0
0.019717 0.421356 -0.322798 76 153 0
-0.513099 0.348937 -0.268607 76 153 0
0.051400 -0.304923 -0.002364 0 127 127
-0.161724 -0.304923 -0.268816 0 127 127
-0.578099 -0.678045 -0.337741 0 0 255
-0.358766 -0.304923 -0.387081 0 127 127
0.502929 -0.353364 0.047867 0 127 127
0.486408 0.473481 0.053888 76 153 0
-0.015048 0.421356 -0.207557 76 153 0
0.337081 0.421356 -0.099252 76 153 0
0.143711 -0.304923 -0.132702 0 127 127
0.369618 0.473481 0.310491 76 153 0
0.077058 -0.357049 0.114926 0 127 127
0.131226 0.421356 -0.217078 76 153 0
-0.030585 -0.357049 -0.014465 0 127 127
0.065855 0.421356 0.132557 76 153 0
-0.510448 0.473481 -0.139017 76 153 0
0.388553 -0.604607 -0.228323 127 0 127
-0.465710 -0.565006 -0.294793 204 51 127
0.464077 -0.142708 -0.306250 76 0 153
0.409802 -0.304923 -0.225352 0 127 127
0.284952 0.421356 0.156917 76 153 0
0.114240 0.473481 0.173911 76 153 0
0.238157 0.421356 0.126416 76 153 0
-0.037763 -0.304923 0.177955 0 127 127
-0.558106 0.473481 -0.006660 76 153 0
-0.520289 -0.713931 -0.311513 204 51 127
-0.239677 0.473481 -0.404061 76 153 0
-0.051110 0.439461 0.527764 76 153 0
0.172196 -0.304923 -0.398416 0 127 127
0.448757 -0.642676 -0.276902 127 0 127
0.547424 -0.320299 -0.050488 0 127 127
-0.012659 -0.068811 0.525839 153 0 76
-0.259280 -0.304923 -0.198666 0 127 127
-0.152218 0.473481 0.205555 76 153 0
0.137606 0.421356 0.466575 76 153 0
-0.042636 -0.357049 -0.042980 0 127 127
0.329284 0.473481 -0.027282 76 153 0
0.368857 -0.327344 0.402911 0 127 127
0.012696 -0.304923 0.366491 0 127 127
0.202232 0.421356 -0.404026 76 153 0
0.007638 0.458144 0.527663 76 153 0
-0.128146 -0.304923 0.206651 0 127 127
-0.094489 -0.575383 0.544274 0 255 0
-0.485564 0.473481 -0.054176 76 153 0
0.350804 -0.663304 -0.162141 127 0 127
0.472544 0.473481 0.152157 76 153 0
-0.309802 0.421356 0.313821 76 153 0
-0.280293 -0.304923 -0.427471 0 127 127
-0.055062 0.473481 -0.192299 76 153 0
0.368312 0.434716 0.368993 76 153 0
-0.466751 0.202119 -0.298544 76 153 0
-0.113648 -0.357049 0.387840 0 127 127
0.310020 -0.308726 0.453583 0 127 127
0.031738 -0.304923 -0.306367 0 127 127
-0.291501 0.473481 0.429369 76 153 0
0.216039 0.473481 0.128923 76 153 0
0.024513 0.421356 -0.281238 76 153 0
-0.014251 -0.357049 -0.424538 0 127 127
0.492573 -0.272230 -0.258859 76 0 153
0.273697 -0.304923 -0.324511 0 127 127
0.386713 -0.304923 0.092436 0 127 127
-0.358742 0.473481 0.183744 76 153 0
-0.495781 -0.304923 0.184687 0 127 127
0.019687 -0.516251 0.564076 255 0 0
0.405260 -0.357049 -0.046324 0 127 127
0.333433 0.473481 -0.103609 76 153 0
0.428442 -0.304923 0.222535 0 127 127
-0.019831 -0.579749 0.574596 255 0 0
-0.280052 -0.357049 -0.233490 0 127 127
-0.377905 -0.304923 0.264514 0 127 127
0.051280 -0.304923 0.275967 0 127 127
0.454894 0.473481 -0.038049 76 153 0
0.451804 -0.357049 0.049805 0 127 127
0.389224 -0.675875 -0.228864 127 0 127
0.027276 -0.304923 -0.034702 0 127 127
-0.486731 -0.350854 -0.184134 0 127 127
-0.062260 0.473481 -0.521439 76 153 0
0.409963 -0.304923 0.345707 0 127 127
0.420419 -0.650134 -0.275139 127 0 127
-0.439384 0.421356 -0.155794 76 153 0
0.082045 -0.357049 0.320164 0 127 127
-0.505259 -0.485624 -0.259319 204 51 127
0.082105 -0.357049 -0.399756 0 127 127
0.003502 0.459021 0.578963 153 0 76
0.326310 0.421356 -0.050404 76 153 0
0.087249 -0.326627 0.542991 0 127 127
-0.007114 -0.357049 0.331889 0 127 127
-0.226369 -0.357049 0.052667 0 127 127
0.456259 0.199373 -0.262736 76 0 153
-0.133463 0.421356 0.192518 76 153 0
-0.191943 0.421356 -0.316082 76 153 0
0.325706 0.473481 0.065520 76 153 0
0.066162 -0.304923 -0.142337 0 127 127
-0.026662 -0.027398 0.569648 153 0 76
-0.058325 -0.304923 0.164270 0 127 127
-0.518830 -0.704777 -0.370705 0 0 255
-0.056930 0.473481 0.426017 76 153 0
-0.104592 0.473481 0.063936 76 153 0
0.172079 0.473481 -0.095499 76 153 0
0.291111 -0.357049 0.395081 0 127 127
0.091140 -0.304923 0.506219 0 127 127
0.394693 0.436591 0.342711 76 153 0
0.383383 -0.357049 0.270077 0 127 127
0.227827 0.473481 0.088366 76 153 0
-0.217656 0.473481 -0.024268 76 153 0
0.501730 0.473481 -0.072582 76 153 0
-0.541164 -0.335842 0.042363 0 127 127
-0.261833 -0.306883 0.489097 0 127 127
-0.092451 -0.304923 0.132453 0 127 127
-0.376889 0.473481 -0.194329 76 153 0
-0.563833 -0.619115 -0.351032 0 0 255
0.216899 0.473481 0.279162 76 153 0
-0.268484 0.473481 -0.360066 76 153 0
0.266914 -0.342033 0.449582 0 127 127
-0.221340 0.421356 -0.419479 76 153 0
-0.498200 0.473481 0.096179 76 153 0
0.130877 0.421356 -0.265831 76 153 0
-0.034937 -0.705201 0.530994 255 0 0
0.485264 0.231490 -0.255182 76 0 153
-0.312431 0.473481 0.378850 76 153 0
-0.368563 -0.304923 -0.154925 0 127 127
0.504003 0.196796 -0.285946 76 0 153
0.425062 0.421356 -0.032090 76 153 0
0.185507 -0.357049 -0.419859 0 127 127
-0.509133 0.445085 0.196079 76 153 0
0.288728 -0.357049 0.106538 0 127 127
0.508524 -0.304923 0.025218 0 127 127
0.078155 0.473481 0.368185 76 153 0
-0.281321 0.473481 -0.126594 76 153 0
0.497985 0.425394 0.090154 76 153 0
-0.585504 -0.729812 -0.349231 0 0 255
0.370428 -0.357049 0.316927 0 127 127
-0.149402 -0.304923 0.149203 0 127 127
0.262413 -0.357049 -0.320177 0 127 127
0.298747 0.473481 0.190415 76 153 0
-0.127980 -0.357049 0.254453 0 127 127
0.450237 0.087237 -0.290032 76 0 153
0.318464 0.450605 0.444619 76 153 0
-0.340983 -0.357049 0.245472 0 127 127
0.494349 -0.414110 -0.302865 76 0 153
-0.335951 0.448923 -0.441931 76 153 0
-0.267224 -0.346914 -0.453303 0 127 127
-0.058914 -0.304923 -0.070036 0 127 127
-0.013358 -0.357049 -0.211787 0 127 127
0.349974 -0.304923 -0.089250 0 127 127
0.281666 -0.304923 -0.273089 0 127 127
-0.036166 0.473481 0.018512 76 153 0
0.453608 -0.332360 -0.266099 76 0 153
-0.233420 0.421356 -0.316060 76 153 0
-0.507203 0.081490 -0.301313 76 153 0
0.402629 -0.357049 0.221470 0 127 127
0.470700 -0.304923 0.225005 0 127 127
-0.434963 -0.304923 -0.189783 0 127 127
0.202968 -0.304923 -0.154932 0 127 127
-0.115677 0.473481 0.341605 76 153 0
0.096637 -0.304923 -0.434018 0 127 127
0.112131 -0.304923 -0.072218 0 127 127
-0.300939 0.421356 0.087206 76 153 0
0.228561 0.473481 -0.105803 76 153 0
0.385337 0.473481 0.286880 76 153 0
-0.048582 -0.617808 0.555578 255 0 0
-0.377708 0.473481 -0.244254 76 153 0
0.057655 0.473481 0.212371 76 153 0
0.003816 0.421356 -0.485950 76 153 0
0.158220 -0.304923 -0.245645 0 127 127
0.387135 0.473481 0.160124 76 153 0
-0.196168 -0.332000 -0.513505 0 127 127
-0.269058 0.440544 0.462058 76 153 0
0.338639 0.473481 0.354995 76 153 0
-0.514890 -0.041169 -0.288989 76 153 0
0.112423 0.473481 0.225453 76 153 0
0.526154 0.449025 0.134288 76 153 0
-0.091040 0.473481 0.132213 76 153 0
-0.223812 0.421356 0.227878 76 153 0
0.260263 -0.357049 0.001311 0 127 127
-0.254434 0.473481 0.285496 76 153 0
-0.016888 -0.653433 0.577412 0 255 0
0.451925 0.421356 0.097751 76 153 0
-0.036885 -0.746827 0.566374 0 255 0
-0.330664 0.421356 -0.382409 76 153 0
-0.294883 0.473481 -0.162485 76 153 0
-0.005494 0.450942 -0.556782 76 153 0
0.362824 -0.723701 -0.171840 127 0 127
0.167060 -0.357049 -0.343186 0 127 127
0.186448 -0.357049 0.350860 0 127 127
-0.214503 0.473481 0.128267 76 153 0
0.455702 -0.743547 -0.282505 127 0 127
-0.413095 0.473481 0.265967 76 153 0
0.088889 -0.304923 -0.307580 0 127 127
0.160186 -0.357049 0.110185 0 127 127
-0.504872 -0.573173 -0.298556 204 51 127
-0.473865 0.003234 -0.304723 76 153 0
0.002024 -0.304923 0.012494 0 127 127
-0.469866 -0.072636 -0.260318 76 153 0
-0.241499 -0.304923 -0.166598 0 127 127
-0.208185 -0.304923 -0.518560 0 127 127
-0.167528 -0.357049 0.017649 0 127 127
-0.303268 -0.304923 -0.211990 0 127 127
-0.228689 0.421356 0.351110 76 153 0
-0.276620 -0.357049 0.100891 0 127 127
0.509944 -0.348050 -0.073843 0 127 127
0.383422 -0.356054 -0.327989 0 127 127
-0.111584 -0.736397 0.548273 0 255 0
-0.220917 0.473481 0.414515 76 153 0
-0.042339 -0.357049 0.216546 0 127 127
0.329223 0.421356 -0.143187 76 153 0
-0.058533 0.473481 -0.238908 76 153 0
0.033034 0.442209 -0.539873 76 153 0
0.541377 -0.304923 0.061816 0 127 127
0.273403 0.421356 0.072795 76 153 0
-0.063756 0.473481 0.263018 76 153 0
-0.337849 -0.357049 0.163812 0 127 127
0.443510 -0.697597 -0.236946 127 0 127
0.372197 -0.658423 -0.188337 127 0 127
0.049602 -0.304923 0.071563 0 127 127
-0.136228 -0.328363 -0.537787 0 127 127
-0.192112 -0.357049 -0.104385 0 127 127
-0.452009 -0.304923 -0.141695 0 127 127
0.011522 -0.279598 0.574909 153 0 76
0.135551 -0.304923 0.253440 0 127 127
-0.014755 -0.376560 0.526565 153 0 76
0.504747 0.473481 -0.202395 76 153 0
-0.158528 -0.357049 0.248588 0 127 127
0.403317 -0.738592 -0.221188 127 0 127
-0.215838 0.421356 -0.457033 76 153 0
-0.010288 0.421356 0.137363 76 153 0
0.042204 0.454109 0.548768 76 153 0
0.291619 -0.344859 -0.436214 0 127 127
0.209576 -0.304923 -0.031845 0 127 127
0.375239 0.473481 0.053057 76 153 0
0.409924 0.421356 -0.110933 76 153 0
0.270801 -0.357049 -0.164610 0 127 127
0.194388 0.421356 -0.148683 76 153 0
-0.460603 0.042823 -0.280873 76 153 0
0.204933 0.473481 -0.296500 76 153 0
0.452759 0.473481 0.042656 76 153 0
0.157422 0.421356 0.332843 76 153 0
-0.138879 -0.304923 -0.413123 0 127 127
-0.002358 0.284535 0.524872 153 0 76
-0.311355 -0.322203 0.458750 0 127 127
0.494412 -0.540557 -0.261621 127 127 0
-0.322972 0.473481 0.224308 76 153 0
0.164758 -0.304923 0.169161 0 127 127
0.454911 0.473481 0.264263 76 153 0
-0.489552 0.421356 -0.097601 76 153 0
0.513708 -0.304923 0.188126 0 127 127
-0.053934 -0.304923 0.467864 0 127 127
-0.325823 -0.347758 -0.412244 0 127 127
0.449993 0.154427 -0.273876 76 0 153
-0.026816 0.473481 0.338819 76 153 0
-0.042565 -0.304923 0.314760 0 127 127
-0.284506 -0.357049 -0.209754 0 127 127
0.342232 -0.304923 0.239464 0 127 127
-0.066219 -0.353083 -0.511010 0 127 127
-0.422439 0.473481 0.109751 76 153 0
-0.394856 -0.357049 0.164138 0 127 127
-0.394500 -0.357049 0.115779 0 127 127
0.378480 -0.703552 -0.177407 127 0 127
0.062126 -0.304923 -0.093198 0 127 127
-0.511550 -0.356448 -0.000263 0 127 127
-0.000006 -0.357049 -0.379824 0 127 127
0.310764 -0.304923 0.043145 0 127 127
0.164782 -0.305903 0.525777 0 127 127
0.199167 0.473481 -0.071783 76 153 0
0.346528 -0.304923 0.386505 0 127 127
-0.113676 0.473481 0.384442 76 153 0
0.237239 -0.357049 -0.298056 0 127 127
0.409408 0.421356 0.207448 76 153 0
0.098502 -0.304923 -0.212081 0 127 127
-0.444572 -0.304923 -0.281049 0 127 127
0.042246 -0.357049 0.291546 0 127 127
-0.140830 -0.304923 0.250664 0 127 127
-0.532999 -0.729968 -0.386555 0 0 255
-0.100836 0.421356 0.465040 76 153 0
0.500638 0.449533 -0.218608 76 153 0
-0.129841 -0.357049 0.338141 0 127 127
-0.090771 -0.628104 0.554161 0 255 0
-0.080638 -0.357049 0.450666 0 127 127
0.363228 -0.357049 -0.240655 0 127 127
0.526409 0.438551 0.024201 76 153 0
0.237401 -0.304923 0.305362 0 127 127
-0.431098 0.421356 -0.054775 76 153 0
-0.239380 -0.357049 -0.115916 0 127 127
0.107882 0.473481 0.524682 76 153 0
0.276114 0.421356 0.129797 76 153 0
0.159516 0.421356 -0.363867 76 153 0
-0.493477 0.024193 -0.253791 76 153 0
-0.350525 0.437706 -0.405953 76 153 0
0.438883 0.473481 0.242601 76 153 0
-0.220381 0.473481 -0.492740 76 153 0
0.008235 0.421356 -0.439312 76 153 0
-0.274148 0.421356 0.248282 76 153 0
-0.402441 0.441180 0.356343 76 153 0
0.257788 0.473481 0.466475 76 153 0
-0.320048 -0.357049 0.200954 0 127 127
-0.476607 0.125412 -0.306186 76 153 0
-0.394600 -0.304923 -0.365257 0 127 127
0.253917 -0.304923 -0.346483 0 127 127
0.532318 0.443724 -0.061357 76 153 0
-0.365593 0.421356 0.243509 76 153 0
-0.021583 -0.224520 0.574657 153 0 76
0.468669 -0.430493 -0.308078 76 0 153
-0.430906 -0.314374 -0.358198 0 127 127
-0.255171 -0.304923 0.415808 0 127 127
0.248403 0.473481 -0.222630 76 153 0
-0.018333 -0.700712 0.566374 0 255 0
0.137768 0.473481 0.307727 76 153 0
-0.511574 -0.090492 -0.265917 76 153 0
0.364124 -0.357049 -0.155097 0 127 127
0.325075 -0.304923 0.167223 0 127 127
-0.213499 0.473481 -0.447240 76 153 0
-0.397856 0.421356 -0.286196 76 153 0
0.465186 -0.022493 -0.306777 76 0 153
-0.001634 -0.312705 0.519352 0 127 127
0.055099 -0.304923 0.174720 0 127 127
0.114249 -0.304923 -0.337381 0 127 127
0.542564 -0.327012 -0.087055 0 127 127
-0.115801 0.421356 -0.378841 76 153 0
-0.176291 0.421356 -0.390391 76 153 0
-0.052719 -0.304923 -0.007562 0 127 127
-0.177308 0.473481 0.460592 76 153 0
-0.191173 0.421356 0.101003 76 153 0
-0.027587 -0.500142 0.536929 255 0 0
0.070141 0.421356 -0.393483 76 153 0
0.054451 -0.357049 -0.237214 0 127 127
0.123486 0.473481 -0.395557 76 153 0
-0.120206 -0.787893 0.563286 0 255 0
0.496397 -0.304923 -0.044301 0 127 127
-0.138870 0.473481 0.152793 76 153 0
0.126737 -0.304923 0.468822 0 127 127
-0.281757 -0.304923 0.177037 0 127 127
0.496264 -0.221448 -0.301104 76 0 153
-0.220351 0.421356 0.115113 76 153 0
0.456446 0.036565 -0.262538 76 0 153
0.475065 0.313171 -0.253849 76 0 153
0.434764 -0.357049 -0.122633 0 127 127
0.450619 -0.244808 -0.291103 76 0 153
0.133978 0.421356 0.184803 76 153 0
-0.216978 -0.304923 0.506439 0 127 127
-0.014058 -0.508826 0.577985 255 0 0
-0.514696 -0.306932 -0.289549 76 153 0
0.126860 0.473481 -0.204546 76 153 0
-0.006617 0.421356 0.344473 76 153 0
0.205038 0.473481 -0.131366 76 153 0
0.183432 0.426456 -0.480294 76 153 0
-0.464011 0.473481 0.269708 76 153 0
0.098290 -0.352233 -0.505395 0 127 127
0.202354 -0.357049 0.297808 0 127 127
0.437900 -0.357049 0.147552 0 127 127
-0.553633 0.449680 -0.035691 76 153 0
-0.138097 -0.357049 0.374266 0 127 127
-0.128720 0.463779 -0.543838 76 153 0
-0.533778 -0.679152 -0.358244 0 0 255
-0.305117 0.421356 0.114267 76 153 0
-0.460588 -0.185421 -0.281658 76 153 0
0.131307 0.473481 -0.021000 76 153 0
0.196088 -0.304923 0.047243 0 127 127
0.123668 0.473481 -0.524954 76 153 0
-0.259024 -0.304923 0.148711 0 127 127
-0.071399 -0.730063 0.584302 0 255 0
-0.091610 0.473481 -0.273239 76 153 0
0.480341 0.473481 -0.025484 76 153 0
0.252966 0.473481 -0.379672 76 153 0
-0.014900 -0.304923 -0.472423 0 127 127
-0.059487 -0.329575 -0.549152 0 127 127
0.450562 -0.004943 -0.290942 76 0 153
0.019847 0.473481 0.453132 76 153 0
0.417826 0.473481 -0.136388 76 153 0
0.398328 -0.357049 -0.149935 0 127 127
0.483713 0.469999 0.259998 76 153 0
0.070185 0.449698 0.541874 76 153 0
0.375983 -0.630365 -0.218180 127 0 127
-0.157369 -0.357049 -0.359927 0 127 127
0.200914 -0.357049 -0.110866 0 127 127
0.221787 0.421356 0.426616 76 153 0
0.149607 0.421356 -0.115512 76 153 0
-0.325045 -0.304923 -0.057231 0 127 127
-0.481581 -0.304923 -0.129474 0 127 127
0.080085 -0.304923 0.477286 0 127 127
-0.113013 0.473481 -0.478220 76 153 0
0.213594 -0.357049 0.152755 0 127 127
-0.526097 -0.304923 0.024360 0 127 127
0.020601 0.032958 0.563370 153 0 76
0.018548 0.421356 -0.130396 76 153 0
0.009346 -0.304923 -0.266671 0 127 127
0.416606 -0.328550 -0.356685 0 127 127
-0.532478 0.473427 -0.178230 76 153 0
-0.475123 -0.304923 0.252210 0 127 127
0.237954 0.421356 0.252291 76 153 0
-0.127761 -0.669767 0.538574 0 255 0
0.387410 0.473481 0.326252 76 153 0
0.045571 -0.357049 0.074426 0 127 127
0.407862 -0.316375 0.366685 0 127 127
0.222564 0.473481 0.382525 76 153 0
0.425221 -0.703223 -0.257910 127 0 127
0.250591 -0.304923 -0.005912 0 127 127
-0.178408 0.473481 0.246330 76 153 0
-0.056258 0.421356 -0.434833 76 153 0
-0.027700 0.467951 0.536665 76 153 0
0.495036 0.347461 -0.302336 76 0 153
0.144751 -0.357049 0.325342 0 127 127
0.253246 0.421356 -0.027667 76 153 0
-0.221966 -0.304923 0.278626 0 127 127
-0.084906 0.473481 0.009980 76 153 0
0.280047 -0.304923 -0.229095 0 127 127
-0.071336 -0.357049 0.258238 0 127 127
0.348174 -0.668625 -0.219452 127 0 127
0.193981 0.473481 0.417424 76 153 0
-0.496089 -0.183501 -0.307628 76 153 0
-0.308160 0.421356 -0.114875 76 153 0
0.222044 0.473481 -0.363306 76 153 0
0.326121 -0.304923 -0.152743 0 127 127
0.495806 0.425405 -0.301588 76 0 153
0.015046 -0.620724 0.560338 255 0 0
-0.528780 -0.788495 -0.332730 0 0 255
0.116592 0.421356 0.237220 76 153 0
-0.324294 -0.304923 -0.110506 0 127 127
-0.350103 0.421356 0.192740 76 153 0
0.274219 -0.320493 0.475522 0 127 127
0.395495 -0.723018 -0.198203 127 0 127
-0.029762 -0.304923 0.085316 0 127 127
0.168434 -0.357049 -0.196227 0 127 127
-0.176300 0.473481 -0.391529 76 153 0
0.422716 -0.648133 -0.220167 127 0 127
-0.325374 -0.304923 0.018813 0 127 127
-0.451288 0.473481 -0.151676 76 153 0
0.303350 -0.357049 0.082376 0 127 127
-0.126474 -0.357049 0.297127 0 127 127
0.013723 0.473481 -0.027130 76 153 0
0.424071 -0.349671 -0.291428 0 127 127
-0.274634 0.421356 0.212569 76 153 0
0.388224 -0.357049 -0.012678 0 127 127
-0.460592 -0.046973 -0.281444 76 153 0
0.213002 -0.304923 0.153559 0 127 127
-0.383864 -0.304923 0.171661 0 127 127
-0.408674 -0.357049 -0.166140 0 127 127
-0.045951 -0.304923 -0.492552 0 127 127
0.045960 0.473481 0.159963 76 153 0
-0.091248 -0.304923 0.352981 0 127 127
-0.339417 -0.304923 -0.348794 0 127 127
-0.541770 0.449076 -0.117327 76 153 0
0.120197 -0.304923 0.145467 0 127 127
-0.154240 0.450639 0.527385 76 153 0
0.030252 -0.337585 -0.537868 0 127 127
0.424710 -0.304923 0.007999 0 127 127
-0.365317 0.421356 0.000979 76 153 0
-0.287274 -0.304923 0.451789 0 127 127
0.083613 -0.357049 -0.152575 0 127 127
-0.551197 -0.304923 0.086506 0 127 127
-0.138140 -0.357049 -0.140125 0 127 127
0.362176 0.421356 -0.238219 76 153 0
-0.124285 0.421356 0.022907 76 153 0
-0.110879 -0.357049 0.076944 0 127 127
0.061607 0.473481 0.511152 76 153 0
0.392068 -0.357049 0.125694 0 127 127
-0.128481 0.473481 -0.407143 76 153 0
0.346805 0.473481 -0.410066 76 153 0
0.020004 0.473481 -0.539644 76 153 0
0.226698 0.421356 0.065362 76 153 0
-0.121462 0.473481 0.203609 76 153 0
-0.111159 0.421356 -0.133865 76 153 0
0.113618 -0.357049 0.398231 0 127 127
0.022291 -0.266218 0.558006 153 0 76
0.504107 -0.202383 -0.285147 76 0 153
-0.440712 0.421356 0.010651 76 153 0
-0.341661 0.473481 -0.215639 76 153 0
-0.137000 -0.585164 0.565142 0 255 0
-0.138275 -0.357049 0.449183 0 127 127
-0.025867 0.424023 0.534369 153 0 76
0.007533 0.473481 0.042245 76 153 0
-0.362588 0.473481 -0.416821 76 153 0
0.058872 0.421356 0.164289 76 153 0
-0.427740 -0.357049 -0.111171 0 127 127
-0.311313 -0.357049 -0.028525 0 127 127
0.039441 -0.357049 -0.376943 0 127 127
0.354938 0.473481 -0.206664 76 153 0
0.142327 0.421356 -0.138208 76 153 0
-0.491548 -0.357049 0.119025 0 127 127
-0.361537 -0.304923 -0.202871 0 127 127
0.058607 0.421356 0.360362 76 153 0
0.174981 -0.304923 0.031794 0 127 127
0.253782 0.473481 -0.140997 76 153 0
0.366972 0.421356 -0.138844 76 153 0
0.255800 -0.304923 -0.396637 0 127 127
-0.469924 -0.219176 -0.260262 76 153 0
0.441370 0.473481 0.215640 76 153 0
-0.225533 -0.357049 -0.390622 0 127 127
0.295782 0.473481 -0.002385 76 153 0
-0.184514 -0.357049 -0.019617 0 127 127
-0.488290 -0.355178 -0.253303 76 153 0
-0.453209 -0.304923 0.215302 0 127 127
