ply
format ascii 1.0
element vertex 1273
property float x
property float y
property float z
property uchar red
property uchar green
property uchar blue
end_header
-0.241088 0.778271 -0.206836 76 153 0
0.207953 0.036320 -0.194017 0 255 0
-0.153701 0.280248 0.235822 76 0 153
-0.047048 0.036320 -0.213367 0 255 0
-0.172575 -0.856610 0.235822 76 0 153
0.233689 0.927425 0.176492 0 127 127
0.225531 -0.332658 -0.235127 153 0 76
-0.227284 -0.836829 -0.250442 76 153 0
0.104270 0.063540 -0.230021 153 0 76
-0.065334 -0.295373 -0.182841 255 0 0
0.233689 0.705862 0.094086 0 127 127
-0.104629 0.564730 -0.235127 153 0 76
0.174209 -0.454722 -0.235127 153 0 76
0.210175 0.132186 0.235822 76 0 153
-0.061394 0.950993 0.062105 153 76 0
0.119732 -0.274953 -0.001439 255 0 0
0.210479 0.816292 -0.235127 153 0 76
-0.187518 -0.689526 0.220507 76 0 153
0.083296 0.880886 -0.250442 204 51 127
-0.155532 -0.601540 0.087072 0 0 255
0.233689 -0.810422 0.079243 0 127 127
-0.029344 -0.581120 0.119946 0 0 255
0.233689 -0.601990 -0.153155 0 127 127
0.061173 0.930572 0.091890 153 76 0
0.001977 -0.756350 -0.235127 153 0 76
-0.068113 0.744315 0.235822 76 153 0
0.136007 0.322067 -0.207675 127 127 0
0.186246 0.633339 0.068505 127 0 127
0.028386 0.423355 0.220507 76 153 0
-0.225773 -0.200050 0.082941 76 153 0
0.084099 0.342487 0.211763 127 127 0
-0.147291 -0.581120 -0.093631 0 0 255
0.006738 -0.344319 -0.230021 153 0 76
-0.134445 0.342487 0.197577 127 127 0
-0.085798 -0.274953 0.116558 255 0 0
-0.241088 -0.872015 0.196149 76 153 0
-0.241088 -0.319065 0.034844 76 153 0
-0.176180 -0.150022 0.220507 76 0 153
0.057566 0.653759 0.096446 127 0 127
-0.225773 -0.780105 -0.180665 76 153 0
0.123087 -0.901326 -0.084347 76 0 153
0.015066 0.201581 0.235822 76 0 153
-0.225773 -0.163670 -0.231058 153 0 76
-0.225773 0.430245 -0.067983 76 153 0
-0.225773 -0.479099 -0.219145 76 153 0
0.195951 0.322067 0.059476 127 127 0
0.134529 0.322067 -0.059824 127 127 0
0.118023 0.014504 -0.250442 153 0 76
0.011456 -0.601540 0.165698 0 0 255
-0.029833 -0.880906 -0.021228 76 0 153
0.122718 0.333354 0.235822 76 0 153
0.233689 0.460109 0.160240 0 127 127
-0.028344 0.930572 0.116011 153 76 0
0.245410 0.266612 0.220507 76 0 153
-0.225773 0.241390 0.091368 76 153 0
-0.241088 -0.712129 0.158059 76 153 0
0.029306 -0.633762 0.235822 76 0 153
0.233689 0.190691 -0.085225 0 127 127
0.041798 -0.701557 -0.235127 153 0 76
-0.225773 0.535268 -0.115135 76 153 0
-0.066636 0.653759 0.057089 127 0 127
0.210687 0.340787 0.219230 127 127 0
0.022875 0.534284 0.235822 76 153 0
-0.241088 0.249752 -0.234539 76 153 0
0.077330 0.210897 0.235822 76 0 153
0.036493 0.653759 -0.073221 127 0 127
0.249005 -0.644204 0.147332 0 127 127
-0.101951 0.342487 0.177861 127 127 0
-0.078922 -0.601540 -0.080639 0 0 255
-0.046508 0.331198 -0.235127 153 0 76
-0.241088 -0.455605 0.199231 76 153 0
-0.241088 0.865076 0.052344 76 153 0
0.233689 0.419737 0.054759 0 127 127
0.233689 0.578781 0.159640 0 127 127
0.231331 0.683090 0.235822 76 153 0
-0.023731 0.556972 0.220507 76 153 0
0.233689 -0.434143 0.048119 0 127 127
-0.179560 -0.213621 0.235822 76 0 153
0.241246 0.325718 0.220507 76 0 153
-0.134891 -0.601540 0.010096 0 0 255
-0.069201 0.438521 -0.235127 153 0 76
-0.080487 -0.601540 0.054515 0 0 255
0.186247 0.930572 0.022177 153 76 0
-0.225773 0.950608 -0.140177 153 76 0
0.233689 0.698489 -0.231916 0 127 127
-0.241088 0.794382 0.022488 76 153 0
0.045013 0.488054 0.235822 76 153 0
0.249005 -0.687245 0.030072 0 127 127
-0.241088 -0.691194 -0.161303 76 153 0
-0.123531 0.342487 -0.206624 127 127 0
-0.225773 0.468397 -0.207014 76 153 0
-0.093589 -0.880906 -0.141765 76 0 153
-0.241088 0.785099 -0.232125 76 153 0
-0.225773 0.601615 -0.035243 76 153 0
0.098123 -0.295373 0.165160 255 0 0
-0.214178 0.509127 0.220507 76 153 0
0.233689 -0.780350 0.193994 0 127 127
-0.036376 -0.288162 -0.235127 153 0 76
-0.115017 0.036320 0.024652 0 255 0
-0.204041 0.820381 0.220507 76 153 0
0.233689 0.197894 -0.224607 0 127 127
-0.202785 0.342487 0.213879 127 127 0
0.249005 0.235292 -0.186558 0 127 127
-0.204547 -0.024189 0.220507 76 0 153
0.050623 0.936144 0.220507 76 153 0
-0.167611 0.342487 0.180741 127 127 0
0.090631 0.653759 0.059295 127 0 127
0.249005 -0.875142 -0.021728 0 127 127
-0.020191 -0.215587 0.235822 76 0 153
0.088498 0.859815 0.235822 76 153 0
-0.189377 0.336106 0.231831 76 153 0
-0.039194 0.904098 -0.230021 153 0 76
0.233689 0.170272 0.023338 0 127 127
-0.127359 -0.791457 0.235822 76 0 153
-0.138097 0.489856 0.220507 76 153 0
0.106298 0.675991 0.220507 76 153 0
-0.143948 0.015899 0.208918 0 255 0
-0.166434 -0.295373 -0.108435 255 0 0
-0.033588 -0.538333 0.235822 76 0 153
0.213332 -0.601540 0.143553 0 0 255
0.249005 -0.826776 -0.195130 0 127 127
-0.039345 -0.179980 0.235822 76 0 153
0.233689 0.672472 -0.105470 0 127 127
0.000966 0.950993 0.036697 153 76 0
0.206629 -0.895171 -0.250442 76 0 153
-0.241088 0.572388 0.039398 76 153 0
-0.220512 0.930572 -0.210599 153 76 0
-0.167234 -0.274953 0.152057 255 0 0
-0.241088 -0.249472 -0.099817 76 153 0
0.081475 0.176203 0.220507 76 0 153
-0.225773 -0.489973 -0.088377 76 153 0
0.115055 -0.880906 -0.158776 76 0 153
0.233689 0.601091 -0.094395 0 127 127
-0.170236 0.950993 0.062314 153 76 0
-0.130458 0.239780 0.235822 76 0 153
0.233689 0.665753 -0.188743 0 127 127
0.249005 -0.545510 -0.081142 0 127 127
-0.045866 -0.597138 0.220507 76 0 153
-0.011180 0.342487 -0.146866 127 127 0
0.103313 -0.880906 -0.238339 76 0 153
0.012811 -0.901326 -0.098722 76 0 153
0.106694 0.036320 -0.097591 0 255 0
-0.225773 -0.562254 -0.086424 76 153 0
-0.102030 0.322067 0.206609 127 127 0
-0.162503 0.342487 0.216735 127 127 0
-0.061652 0.647668 -0.230021 153 0 76
-0.073935 0.322067 0.186100 127 127 0
0.249005 -0.747792 0.185835 0 127 127
-0.241088 -0.129965 -0.040468 76 153 0
0.191073 -0.274953 -0.037591 255 0 0
0.055707 0.633339 0.202707 127 0 127
0.176138 -0.271238 0.220507 76 0 153
-0.241088 0.594428 0.143933 76 153 0
-0.225773 0.406717 0.164795 76 153 0
-0.177541 -0.113659 0.220507 76 0 153
0.159352 0.653759 0.031439 127 0 127
0.153899 -0.314554 0.220507 76 0 153
-0.204305 -0.274953 -0.146581 255 0 0
0.020321 0.068714 0.220507 76 0 153
-0.061427 -0.854214 0.235822 76 0 153
-0.137423 -0.901326 -0.000245 76 0 153
0.032422 0.787914 0.220507 76 153 0
-0.241088 -0.211090 0.124920 76 153 0
0.249005 0.248297 -0.065551 0 127 127
-0.225773 0.073231 0.013585 76 153 0
-0.169371 -0.901326 -0.116649 76 0 153
-0.208874 0.036320 -0.116424 0 255 0
0.249005 -0.195910 0.095706 0 127 127
0.249005 0.659113 0.032530 0 127 127
-0.193629 -0.286929 0.220507 76 0 153
-0.203400 0.155723 -0.230021 153 0 76
0.249005 -0.753676 -0.060526 0 127 127
0.249005 0.575804 -0.195114 0 127 127
-0.093218 0.230207 0.220507 76 0 153
-0.079801 -0.026218 -0.249687 153 0 76
-0.220051 0.322067 0.194084 127 127 0
0.117176 -0.295373 -0.207109 255 0 0
-0.134064 0.930572 -0.026644 153 76 0
-0.096068 0.736429 0.220507 76 153 0
0.233689 0.819717 -0.042194 0 127 127
0.149673 0.576950 0.235822 76 153 0
-0.214611 0.267239 -0.235127 153 0 76
-0.225773 0.197918 -0.120277 76 153 0
-0.225773 0.337995 0.153098 127 127 0
0.207822 -0.581120 0.197162 0 0 255
0.233689 0.803870 -0.062811 0 127 127
0.089140 0.322067 0.102739 127 127 0
0.149558 0.717930 -0.230021 153 0 76
-0.241088 0.349516 -0.019760 76 153 0
0.030494 -0.295373 -0.006754 255 0 0
0.249005 0.256083 -0.039864 0 127 127
-0.193811 -0.612166 0.235822 76 0 153
-0.088791 -0.274953 0.066370 255 0 0
-0.143334 0.635785 0.220507 76 153 0
0.249005 0.388846 -0.176045 0 127 127
0.114477 0.950993 -0.231121 153 76 0
0.233689 -0.191014 -0.081678 0 127 127
-0.189536 -0.426983 0.235822 76 0 153
0.094233 -0.151008 0.235822 76 0 153
0.109884 -0.852358 -0.250442 76 0 153
0.146600 -0.295373 -0.122217 255 0 0
-0.123916 0.036320 -0.183649 0 255 0
-0.149144 -0.581120 0.206519 0 0 255
0.233689 -0.617651 -0.223147 0 127 127
-0.038141 0.509234 0.235822 76 153 0
-0.225773 -0.087376 0.009190 76 153 0
0.190724 -0.274953 -0.123910 255 0 0
0.233689 -0.381902 -0.178575 0 127 127
0.233689 0.405605 -0.165693 0 127 127
0.249005 -0.034147 -0.140226 0 127 127
-0.086314 0.930572 0.200206 153 76 0
0.165003 -0.888756 -0.250442 76 0 153
0.179977 -0.601540 -0.177165 0 0 255
0.233689 0.827958 -0.233709 0 127 127
0.249005 0.365139 -0.025279 0 127 127
-0.029191 -0.151934 0.235822 76 0 153
-0.159844 0.015899 -0.136611 0 255 0
-0.156196 0.036320 -0.146414 0 255 0
0.161847 -0.880906 -0.008515 76 0 153
0.098152 -0.274953 0.010036 255 0 0
0.174650 0.237010 -0.230021 153 0 76
0.173522 -0.233254 -0.235127 153 0 76
-0.122306 0.930572 0.093848 153 76 0
-0.175327 -0.901326 0.183867 76 0 153
-0.028502 -0.295373 0.198580 255 0 0
0.000292 -0.901326 -0.001965 76 0 153
0.060326 0.036320 -0.213529 0 255 0
0.089453 -0.849161 -0.235127 76 0 153
0.170894 0.653759 -0.109859 127 0 127
0.100550 -0.601540 0.010221 0 0 255
0.035556 0.005347 -0.235127 153 0 76
0.233689 -0.177420 -0.184736 0 127 127
-0.149907 0.633339 0.099778 127 0 127
0.080255 0.015899 -0.181286 0 255 0
-0.165421 -0.118350 -0.235127 153 0 76
-0.082149 -0.601540 -0.189782 0 0 255
0.231454 -0.070593 0.235822 76 0 153
-0.001287 0.015899 -0.052399 0 255 0
0.236920 -0.901326 -0.084450 0 127 127
0.110507 0.950993 0.167632 153 76 0
-0.165849 0.653759 -0.036856 127 0 127
-0.121589 0.036320 0.151961 0 255 0
0.233689 -0.651091 -0.189939 0 127 127
0.181706 0.031508 0.220507 76 0 153
0.233689 -0.184853 0.158918 0 127 127
0.249005 -0.160924 0.015238 0 127 127
0.013516 0.344674 0.220507 76 153 0
0.233689 -0.038951 0.014613 0 127 127
-0.241088 -0.570944 0.210781 76 153 0
0.233689 0.285067 0.213972 0 127 127
-0.062237 0.246375 0.220507 76 0 153
0.150187 -0.010278 0.235822 76 0 153
0.060124 -0.522768 0.220507 76 0 153
-0.115825 0.653759 0.166013 127 0 127
-0.160911 0.240217 0.220507 76 0 153
-0.241088 -0.272223 0.090819 76 153 0
-0.033640 -0.135087 -0.230021 153 0 76
-0.115980 -0.753079 -0.235127 153 0 76
0.224011 0.834350 0.235822 76 153 0
-0.175388 0.547880 0.220507 76 153 0
-0.021866 -0.007203 0.220507 76 0 153
0.137971 -0.880906 0.036327 76 0 153
0.233689 -0.340988 -0.148409 0 127 127
-0.028217 -0.601540 -0.133723 0 0 255
-0.112027 -0.901326 0.062037 76 0 153
-0.224400 -0.790379 -0.235127 76 0 153
0.249005 0.771288 0.101856 0 127 127
0.024058 0.585650 -0.230021 153 0 76
0.150039 -0.809889 -0.235127 76 0 153
0.095913 0.036320 0.172457 0 255 0
0.233689 -0.829544 -0.121710 0 127 127
0.057313 0.149412 -0.235127 153 0 76
0.223497 -0.581120 0.090088 0 0 255
-0.032960 -0.880906 -0.054161 76 0 153
0.045230 0.036320 0.209409 0 255 0
-0.174731 -0.601540 0.169382 0 0 255
-0.195318 -0.295373 -0.210210 255 0 0
0.249005 0.881110 0.089377 0 127 127
-0.086656 0.342487 -0.209341 127 127 0
0.249005 0.897758 -0.056034 0 127 127
0.233689 0.322237 -0.176364 127 127 0
0.133178 -0.880906 0.122419 76 0 153
0.249005 -0.857689 0.042361 0 127 127
-0.213875 -0.601540 -0.125623 0 0 255
0.080536 0.525112 -0.230021 153 0 76
0.249005 0.733345 -0.129602 0 127 127
-0.107406 0.633339 0.120825 127 0 127
0.233689 0.112194 -0.081608 0 127 127
-0.217522 0.950993 0.040226 153 76 0
0.060086 0.653759 0.129293 127 0 127
-0.115421 -0.601540 0.151190 0 0 255
-0.241088 0.849032 -0.138853 76 153 0
0.249005 0.234820 0.060685 0 127 127
0.061588 0.949132 0.235822 76 153 0
0.249005 0.771986 0.027497 0 127 127
-0.022461 0.163720 -0.235127 153 0 76
0.249005 -0.732933 -0.206579 0 127 127
-0.086135 -0.833298 -0.250442 76 0 153
-0.241088 -0.841803 -0.083893 76 153 0
-0.182208 -0.901326 -0.025829 76 0 153
-0.220655 -0.880906 -0.192689 76 0 153
-0.225773 -0.411389 -0.088456 76 153 0
-0.225773 0.842326 -0.048931 76 153 0
0.198955 -0.295373 -0.164773 255 0 0
0.126344 -0.581120 -0.109870 0 0 255
-0.078565 0.633339 -0.053147 127 0 127
0.233689 -0.166443 -0.008889 0 127 127
-0.200315 -0.843423 0.235822 76 0 153
-0.241088 0.700517 -0.150737 76 153 0
0.049033 0.930572 0.175642 153 76 0
0.092569 -0.653670 0.235822 76 0 153
-0.080429 0.633339 -0.115228 127 0 127
-0.241088 0.867646 -0.019598 76 153 0
-0.241088 0.531728 -0.006434 76 153 0
-0.135995 0.547127 0.220507 76 153 0
0.248989 -0.901326 -0.018971 0 127 127
0.233689 0.625377 -0.230483 153 0 76
0.107357 0.036320 -0.205468 0 255 0
0.228051 0.758408 0.220507 76 153 0
-0.225773 0.941348 -0.236674 76 153 0
-0.241088 -0.400596 -0.010230 76 153 0
0.148727 0.930572 0.004871 153 76 0
-0.225773 0.548966 -0.188793 76 153 0
0.126800 -0.601540 -0.023686 0 0 255
-0.206167 -0.785319 0.220507 76 0 153
-0.075246 -0.356494 0.220507 76 0 153
-0.113862 0.594224 -0.235127 153 0 76
0.249005 0.363387 0.053365 0 127 127
0.177280 -0.116657 0.235822 76 0 153
0.013795 0.950993 0.201763 153 76 0
0.071384 -0.687774 -0.235127 153 0 76
-0.241088 -0.154452 -0.159074 76 153 0
-0.241088 -0.382309 -0.054012 76 153 0
-0.241088 0.098474 0.178833 76 153 0
-0.202848 -0.023371 0.258639 153 76 0
0.174910 0.743452 -0.230021 153 0 76
0.102272 -0.522889 -0.235127 153 0 76
0.105321 0.633339 -0.211031 127 0 127
0.216431 0.633339 0.051570 127 0 127
0.124394 0.056408 0.220507 76 0 153
-0.016155 0.930572 0.027820 153 76 0
0.135920 -0.026218 -0.239243 153 0 76
0.147326 -0.578066 -0.235127 153 0 76
-0.215579 0.735530 0.235822 76 153 0
0.249005 0.734976 -0.241026 0 127 127
-0.129378 -0.601540 0.078558 0 0 255
-0.241088 -0.248384 -0.188376 76 153 0
-0.241088 0.431486 -0.205679 76 153 0
0.063445 -0.304836 -0.230021 153 0 76
0.249005 -0.348825 -0.167138 0 127 127
-0.207353 -0.298069 0.235822 76 0 153
0.249005 0.721420 0.198645 0 127 127
-0.241088 -0.056761 -0.156791 76 153 0
-0.241088 0.420628 0.064515 76 153 0
-0.123758 0.342487 -0.022777 127 127 0
-0.225773 0.287239 0.127755 76 153 0
-0.225773 -0.681816 0.181206 76 153 0
-0.001822 0.633339 0.008435 127 0 127
0.233689 0.250170 0.085035 0 127 127
0.064147 0.525906 0.220507 76 153 0
-0.006348 0.403895 -0.235127 153 0 76
0.233689 0.435902 -0.054376 0 127 127
0.122399 0.620235 -0.230021 153 0 76
0.249005 -0.599724 0.039987 0 127 127
-0.138834 -0.778803 -0.242397 76 0 153
-0.183364 0.631748 0.235822 76 153 0
-0.091318 0.651196 0.235822 76 153 0
0.160217 0.654573 0.235822 76 153 0
-0.241088 -0.505471 0.126546 76 153 0
0.076368 -0.807049 -0.250442 76 0 153
-0.122518 -0.227981 -0.230021 153 0 76
-0.124260 -0.901326 -0.228809 76 0 153
0.232514 0.342487 0.034447 127 127 0
0.228079 0.950993 0.106288 153 76 0
0.117931 0.872801 -0.230021 153 0 76
0.152010 0.015899 -0.033137 0 255 0
-0.198128 -0.514275 0.235822 76 0 153
0.198982 -0.581120 -0.095160 0 0 255
-0.227858 0.886709 -0.250442 76 153 0
0.081484 -0.295373 -0.174556 255 0 0
-0.063557 0.685149 0.220507 76 153 0
0.233689 -0.807805 -0.233366 0 127 127
-0.241088 0.689707 -0.116959 76 153 0
-0.192992 -0.758261 -0.235127 153 0 76
-0.032646 -0.295373 0.084090 255 0 0
0.152659 -0.880906 -0.099363 76 0 153
-0.192786 0.873360 -0.235127 153 0 76
0.198488 0.950993 -0.221809 153 76 0
0.231288 -0.295373 0.152044 255 0 0
-0.058213 -0.880906 -0.188756 76 0 153
0.204630 -0.601540 0.009058 0 0 255
-0.046583 0.930572 -0.111918 153 76 0
0.146298 -0.295373 -0.073755 255 0 0
0.057983 0.930572 -0.153189 153 76 0
0.233689 0.154310 -0.042072 0 127 127
-0.138321 0.653759 0.131229 127 0 127
-0.118365 0.036320 -0.134474 0 255 0
-0.094900 -0.724430 -0.235127 153 0 76
-0.045983 -0.581120 -0.091788 0 0 255
-0.035179 -0.901326 -0.249630 76 0 153
0.118414 -0.295373 -0.018400 255 0 0
0.144800 -0.901326 -0.111745 76 0 153
-0.076298 -0.288844 -0.235127 153 0 76
-0.014237 -0.880906 0.026792 76 0 153
0.072589 -0.347154 -0.230021 153 0 76
-0.086884 0.342487 -0.063245 127 127 0
-0.225773 -0.125759 -0.064724 76 153 0
0.197275 -0.601540 0.094557 0 0 255
-0.225773 0.332228 -0.128000 76 153 0
0.128090 0.844489 0.220507 76 153 0
0.245691 0.306811 0.235822 76 0 153
-0.153729 0.594468 -0.230021 153 0 76
-0.232506 0.219743 -0.250442 76 153 0
-0.102099 -0.295373 0.129283 255 0 0
0.040096 0.630423 -0.235127 153 0 76
-0.241088 0.736710 -0.019680 76 153 0
-0.225773 0.591195 0.025897 76 153 0
-0.085125 0.185415 0.235822 76 0 153
0.160041 0.036320 0.197245 0 255 0
-0.241088 -0.735564 -0.152261 76 153 0
-0.002252 -0.601540 -0.129223 0 0 255
0.043035 0.322067 -0.195799 127 127 0
-0.187601 0.043808 0.235822 76 0 153
0.022369 0.930572 -0.151785 153 76 0
0.126539 0.780642 -0.235127 153 0 76
-0.087159 -0.249896 0.235822 76 0 153
-0.066919 0.935815 0.219230 153 76 0
-0.184378 0.342487 -0.010166 127 127 0
0.233689 0.834499 0.028091 0 127 127
-0.156592 -0.274953 -0.015558 255 0 0
0.178760 0.036320 -0.086900 0 255 0
-0.187547 -0.880906 -0.211816 76 0 153
0.023269 0.633339 0.100813 127 0 127
0.218594 0.633339 -0.019541 127 0 127
0.249005 -0.574538 0.006302 0 127 127
-0.183639 0.358439 0.235822 76 153 0
-0.029210 0.056902 0.220507 76 0 153
-0.111277 0.930572 -0.152966 153 76 0
0.239549 -0.477546 0.220507 76 0 153
-0.015026 -0.701375 0.235822 76 0 153
-0.229079 -0.731450 -0.250442 76 153 0
-0.187721 0.772032 -0.230021 153 0 76
-0.225773 0.560818 -0.212082 76 153 0
0.233689 -0.379276 0.150932 0 127 127
-0.225773 0.175759 0.002151 76 153 0
0.131808 -0.274953 -0.132638 255 0 0
-0.000577 0.050315 -0.230021 153 0 76
0.047472 0.044154 -0.250442 153 0 76
-0.066390 0.653759 0.008264 127 0 127
-0.172295 0.342487 0.095048 127 127 0
0.233689 -0.453399 0.079735 0 127 127
-0.241088 -0.241529 0.130800 76 153 0
-0.136830 -0.295373 0.108070 255 0 0
0.156913 -0.840716 -0.250442 76 0 153
0.196137 0.462191 -0.235127 153 0 76
0.120514 0.342487 -0.018687 127 127 0
0.249005 0.724640 0.083145 0 127 127
-0.018332 -0.484552 -0.230021 153 0 76
-0.225773 -0.127369 -0.094736 76 153 0
-0.225773 -0.365116 0.108050 76 153 0
-0.093601 0.653759 0.193899 127 0 127
0.249005 -0.890757 0.193812 0 127 127
-0.182127 0.076520 -0.230021 153 0 76
0.017961 0.653759 0.179279 127 0 127
0.249005 -0.212267 -0.205955 0 127 127
0.138737 0.930572 0.032229 153 76 0
-0.129534 0.950993 0.125284 153 76 0
-0.225773 0.345324 -0.227369 76 153 0
0.249005 0.321183 -0.138096 0 127 127
-0.008072 -0.539992 -0.230021 153 0 76
-0.225773 0.859642 -0.171196 76 153 0
0.171855 -0.393214 -0.230021 153 0 76
-0.098798 0.584609 0.235822 76 153 0
-0.170193 -0.026867 0.235822 76 0 153
0.249005 0.498135 0.035719 0 127 127
0.164082 0.880211 -0.230021 153 0 76
0.119059 0.930572 -0.007525 153 76 0
-0.054784 0.322067 -0.160863 127 127 0
-0.225773 -0.365217 0.204454 76 153 0
0.233689 0.193290 -0.041266 0 127 127
-0.231152 -0.580137 -0.250442 76 153 0
-0.225773 0.100423 0.015733 76 153 0
-0.087650 -0.901326 0.081805 76 0 153
0.019930 0.036320 -0.189484 0 255 0
-0.179841 0.653759 0.107818 127 0 127
-0.208683 0.930572 0.009842 153 76 0
-0.175188 -0.295373 0.183008 255 0 0
-0.202250 -0.008617 -0.250442 153 0 76
-0.198708 0.710753 0.220507 76 153 0
-0.205837 -0.127124 0.220507 76 0 153
0.233689 -0.190119 0.120137 0 127 127
-0.192364 -0.573243 0.220507 76 0 153
0.233689 -0.064088 0.103044 0 127 127
-0.241088 0.926593 -0.029252 76 153 0
-0.154517 -0.901326 0.170395 76 0 153
-0.033297 -0.274648 0.235822 76 0 153
0.233689 -0.420592 -0.032380 0 127 127
-0.078334 0.815039 0.235822 76 153 0
-0.183128 0.653759 0.159658 127 0 127
0.048111 0.633339 -0.044827 127 0 127
-0.206363 0.015899 0.080976 0 255 0
-0.208247 0.209407 -0.230021 153 0 76
-0.225773 0.133876 0.074947 76 153 0
0.233689 0.665032 0.069971 0 127 127
0.108127 -0.495736 0.235822 76 0 153
0.080593 -0.067387 0.220507 76 0 153
-0.241088 -0.292243 0.066384 76 153 0
-0.177765 0.930572 0.091393 153 76 0
-0.227190 -0.801797 0.219230 76 153 0
0.069274 -0.026218 -0.249583 153 0 76
-0.030039 -0.295373 -0.140904 255 0 0
-0.225773 0.313869 -0.208933 76 153 0
0.249005 0.360837 -0.090428 0 127 127
-0.225773 0.944379 0.191859 153 76 0
0.249005 0.019297 -0.039300 0 127 127
-0.042611 -0.901326 0.157960 76 0 153
0.161123 -0.880906 0.212511 76 0 153
0.233689 -0.237021 -0.127069 0 127 127
0.086980 -0.202829 0.220507 76 0 153
-0.241088 -0.659680 -0.215668 76 153 0
0.249005 -0.297148 0.056698 0 127 127
0.233689 0.551001 -0.023320 0 127 127
-0.041909 -0.880906 -0.230706 153 0 76
-0.037175 0.342487 -0.078946 127 127 0
-0.094614 0.342487 -0.168681 127 127 0
-0.146255 -0.833231 -0.250442 76 0 153
-0.004646 0.930572 -0.168422 153 76 0
-0.049491 0.633339 -0.089346 127 0 127
0.043268 0.212957 0.220507 76 0 153
0.029887 0.015899 -0.013305 0 255 0
-0.034360 0.653759 0.093702 127 0 127
-0.241088 0.914663 -0.184773 76 153 0
-0.241088 -0.180591 -0.105551 76 153 0
0.218478 0.033083 -0.250442 153 0 76
-0.177012 -0.880906 0.103921 76 0 153
0.129247 0.342487 0.003046 127 127 0
0.249005 0.032395 -0.192557 0 127 127
0.182785 0.878830 0.235822 76 153 0
-0.225773 0.530508 0.136536 76 153 0
0.249005 0.134938 0.098841 0 127 127
0.068279 -0.901326 0.189695 76 0 153
0.115861 0.015899 0.196679 0 255 0
-0.241088 -0.230706 -0.160035 76 153 0
-0.048671 0.633339 -0.051084 127 0 127
-0.093033 0.846312 -0.230021 153 0 76
0.233689 -0.449601 -0.105663 0 127 127
0.249005 0.811529 0.094886 0 127 127
-0.093400 -0.581120 0.176581 0 0 255
0.233689 0.675031 0.156254 0 127 127
0.071526 -0.601540 -0.165170 0 0 255
0.049349 0.950993 -0.151081 153 76 0
-0.025150 -0.880906 0.005118 76 0 153
0.092934 -0.295373 -0.130135 255 0 0
0.121730 -0.839829 0.220507 76 0 153
-0.054515 0.633339 -0.024296 127 0 127
0.187021 0.925985 0.235822 76 153 0
0.134148 -0.295373 0.122061 255 0 0
0.009795 0.930572 -0.210971 153 76 0
0.233689 0.036190 0.178142 0 255 0
0.088045 -0.274953 -0.104560 255 0 0
0.040480 0.342487 0.024855 127 127 0
-0.241088 0.646315 -0.004371 76 153 0
0.066226 0.015899 0.190871 0 255 0
-0.225773 -0.043962 -0.010070 76 153 0
0.056520 0.950993 0.128863 153 76 0
0.027182 -0.880906 0.066822 76 0 153
-0.241088 0.395839 -0.052084 76 153 0
-0.212209 -0.274953 0.207916 255 0 0
-0.211811 -0.274953 0.103470 255 0 0
-0.082557 -0.901326 0.176531 76 0 153
0.203310 0.508366 0.235822 76 153 0
-0.241088 0.092907 -0.106373 76 153 0
-0.118502 0.930572 -0.249415 204 51 127
-0.214613 0.015899 -0.200465 0 255 0
-0.002382 0.653759 -0.194215 127 0 127
0.249005 0.255805 -0.229669 0 127 127
-0.069627 -0.048463 0.235822 76 0 153
0.249005 -0.722650 0.179468 0 127 127
0.123015 0.653759 0.054193 127 0 127
0.043020 0.633339 0.009294 127 0 127
0.130629 0.234721 0.220507 76 0 153
-0.198072 0.633339 -0.091325 127 0 127
0.006914 -0.601540 0.045893 0 0 255
0.100030 -0.233161 0.235822 76 0 153
0.193983 0.633339 -0.033858 127 0 127
0.207954 0.633339 0.184455 127 0 127
-0.071160 0.653759 0.174553 127 0 127
-0.031774 -0.788464 -0.230021 153 0 76
0.124496 0.081013 0.235822 76 0 153
0.249005 -0.670933 0.188223 0 127 127
0.249005 -0.294525 -0.022607 0 127 127
0.204235 0.653759 -0.069645 127 0 127
0.143379 0.315964 -0.235127 153 0 76
-0.068618 -0.168800 0.220507 76 0 153
0.164231 0.653759 0.178030 127 0 127
0.233689 0.035077 -0.078710 0 127 127
-0.153702 0.015899 0.147389 0 255 0
-0.153549 0.853994 -0.250442 204 51 127
0.233689 -0.013018 0.168871 0 127 127
0.035515 0.131531 0.235822 76 0 153
-0.241088 -0.290005 -0.222233 76 153 0
0.045098 -0.601540 0.072073 0 0 255
0.249005 0.864187 -0.241882 0 127 127
0.069534 0.060410 -0.250442 153 0 76
0.233689 -0.106796 0.181073 0 127 127
0.229779 0.112697 -0.235127 153 0 76
0.064747 0.390361 -0.230021 153 0 76
-0.044480 -0.827379 -0.250442 76 0 153
-0.175993 -0.880906 0.152510 76 0 153
-0.030498 0.950993 -0.084310 153 76 0
-0.223302 0.178159 -0.235127 153 0 76
-0.111148 0.015899 0.207795 0 255 0
-0.241088 0.498729 0.164133 76 153 0
0.167923 0.051076 -0.250442 153 0 76
-0.225773 0.928759 0.153741 76 153 0
0.165287 0.517650 0.220507 76 153 0
0.044099 0.855796 -0.230021 153 0 76
0.064079 -0.274953 0.023991 255 0 0
0.033027 -0.901326 -0.171973 76 0 153
0.211835 -0.316635 -0.230021 153 0 76
0.233689 0.346464 0.099445 0 127 127
0.249005 0.072796 -0.169777 0 127 127
-0.003407 0.022213 -0.235127 153 0 76
-0.191444 -0.887808 0.235822 76 0 153
-0.025653 0.930572 -0.211085 153 76 0
-0.208513 -0.245582 0.235822 76 0 153
0.146744 -0.717253 0.235822 76 0 153
-0.196225 0.930572 0.128643 153 76 0
-0.241088 0.249553 -0.209793 76 153 0
0.209261 0.930572 0.152129 153 76 0
0.228029 0.913416 0.220507 76 153 0
-0.018803 0.015899 0.136284 0 255 0
0.233689 -0.216222 0.038322 0 127 127
0.214212 0.633339 -0.172391 127 0 127
-0.151579 0.521895 0.220507 76 153 0
-0.241088 0.146830 -0.231193 76 153 0
0.128177 0.518992 0.220507 76 153 0
0.249005 -0.499879 -0.123088 0 127 127
-0.225773 -0.847666 -0.126392 76 153 0
-0.048320 0.871867 0.235822 76 153 0
0.112995 0.402052 0.235822 76 153 0
0.165319 -0.581120 0.005491 0 0 255
-0.222527 -0.850353 0.220507 76 0 153
-0.149549 -0.549133 -0.230021 153 0 76
0.226328 -0.274953 -0.017738 255 0 0
-0.241088 0.750206 -0.141861 76 153 0
0.110079 -0.880906 -0.036504 76 0 153
-0.140807 -0.294479 0.219230 255 0 0
0.233689 0.172655 -0.161726 0 127 127
0.249005 -0.652025 0.092795 0 127 127
0.142495 0.015899 0.190562 0 255 0
-0.123230 -0.853997 -0.250442 76 0 153
-0.012478 0.933698 -0.250442 153 76 0
0.226395 0.473406 -0.235127 153 0 76
-0.241088 -0.345402 -0.002625 76 153 0
0.233689 -0.419694 0.069821 0 127 127
-0.225773 0.882017 0.203425 76 153 0
-0.184021 -0.601540 -0.056115 0 0 255
0.011662 -0.550437 0.235822 76 0 153
-0.128289 0.076128 0.220507 76 0 153
0.171279 -0.295373 0.167899 255 0 0
-0.068492 0.723467 0.220507 76 153 0
-0.163063 -0.880906 0.007849 76 0 153
0.002197 -0.847628 -0.235127 153 0 76
0.177511 0.946985 -0.250442 153 76 0
-0.219473 0.342487 -0.168189 127 127 0
0.249005 -0.377292 0.126877 0 127 127
-0.066602 0.950993 -0.179123 153 76 0
-0.133966 -0.137752 0.235822 76 0 153
-0.143189 -0.274953 -0.082904 255 0 0
-0.225773 0.040743 0.104084 76 153 0
-0.072245 0.343597 0.235822 76 153 0
-0.241088 0.873017 -0.124268 76 153 0
0.129280 -0.901326 -0.173896 76 0 153
-0.074511 -0.749368 -0.230021 153 0 76
-0.112676 -0.880906 -0.204305 76 0 153
0.233689 -0.503218 0.107107 0 127 127
0.124290 -0.581120 0.174425 0 0 255
0.233689 0.746424 0.129779 0 127 127
-0.074668 0.317736 -0.235127 153 0 76
-0.241088 -0.528722 -0.047345 76 153 0
0.137092 -0.581120 -0.079558 0 0 255
0.249005 0.068998 0.065305 0 127 127
-0.225773 0.618978 -0.086891 76 153 0
-0.168010 0.950993 -0.046743 153 76 0
-0.008883 0.653759 0.074225 127 0 127
-0.000670 0.322067 0.059260 127 127 0
-0.108529 -0.880906 0.169467 76 0 153
-0.191753 -0.778803 -0.250353 76 0 153
0.249005 0.310921 -0.221875 0 127 127
0.194822 -0.581120 -0.035001 0 0 255
0.249005 0.045280 0.153599 0 127 127
-0.079298 -0.678812 -0.235127 153 0 76
0.177877 -0.295373 -0.089059 255 0 0
-0.214433 -0.581120 0.174165 0 0 255
-0.241088 0.040509 0.122975 76 153 0
-0.210072 0.904452 0.220507 76 153 0
0.071009 0.653759 0.173358 127 0 127
-0.241088 0.305793 -0.072616 76 153 0
-0.225773 -0.309040 -0.037322 76 153 0
0.177750 0.448306 0.220507 76 153 0
0.249005 -0.617926 0.200433 0 127 127
-0.103535 -0.901326 0.126145 76 0 153
0.249005 -0.648778 -0.037453 0 127 127
-0.241088 -0.457485 -0.020447 76 153 0
-0.084196 -0.274953 -0.178066 255 0 0
0.084502 0.015899 -0.222760 0 255 0
-0.225773 -0.566543 -0.057493 76 153 0
0.233689 0.773670 0.077010 0 127 127
0.247001 -0.685873 -0.250442 0 127 127
0.131043 0.036320 0.141838 0 255 0
-0.241088 0.571234 -0.108244 76 153 0
-0.225773 0.167740 -0.029625 76 153 0
-0.241088 0.082169 0.097578 76 153 0
0.134452 0.930572 -0.118848 153 76 0
0.023634 -0.586669 -0.230021 0 0 255
0.249005 -0.440516 -0.033972 0 127 127
-0.122223 0.633339 -0.162590 127 0 127
0.249005 -0.425079 0.134047 0 127 127
0.233579 -0.882862 0.235822 76 0 153
-0.225773 0.097306 -0.072751 76 153 0
0.233689 -0.675837 0.065075 0 127 127
-0.241088 -0.004056 0.187892 76 153 0
0.224317 0.562227 0.220507 76 153 0
-0.122127 0.919734 0.235822 76 153 0
-0.154865 0.834115 -0.230021 153 0 76
0.115530 0.015899 0.040777 0 255 0
0.059572 -0.180645 -0.230021 153 0 76
0.233689 -0.278483 -0.135429 0 127 127
0.233689 0.513528 0.031345 0 127 127
-0.066543 -0.901326 0.200626 76 0 153
-0.192519 -0.245682 -0.230021 153 0 76
-0.241088 -0.354265 -0.245744 76 153 0
-0.241088 -0.602674 0.181454 76 153 0
-0.000553 0.172254 0.235822 76 0 153
0.178661 0.950993 -0.181988 153 76 0
-0.188012 -0.601540 -0.087161 0 0 255
-0.241088 -0.577413 -0.201237 76 153 0
-0.084393 0.265366 -0.235127 153 0 76
0.025599 -0.216272 -0.230021 153 0 76
-0.241088 -0.689946 0.155542 76 153 0
-0.215437 -0.880906 -0.077229 76 0 153
0.249005 0.774456 -0.018100 0 127 127
-0.241088 -0.044338 -0.139352 76 153 0
0.059888 -0.408927 0.235822 76 0 153
-0.026924 0.342487 0.018659 127 127 0
-0.079813 0.042843 -0.235127 153 0 76
0.053668 -0.274953 -0.062535 255 0 0
-0.122811 0.125510 0.220507 76 0 153
-0.037710 -0.573647 -0.235127 153 0 76
-0.241088 0.712619 0.110593 76 153 0
0.233689 -0.114215 0.202693 0 127 127
-0.076409 -0.432624 0.235822 76 0 153
-0.241088 -0.180291 0.191509 76 153 0
0.054819 0.015899 0.149108 0 255 0
-0.035277 0.930572 -0.166583 153 76 0
-0.039314 -0.228794 -0.230021 153 0 76
0.060939 -0.274953 -0.153610 255 0 0
0.033086 0.916402 -0.250442 204 51 127
0.215313 0.342487 -0.109626 127 127 0
0.054828 -0.247799 0.220507 76 0 153
-0.186635 0.021738 -0.235127 153 0 76
0.098564 -0.880906 0.091491 76 0 153
0.069793 0.036320 -0.058348 0 255 0
0.113511 0.322067 0.212875 127 127 0
-0.154968 -0.081783 -0.230021 153 0 76
-0.241088 -0.009199 -0.014413 76 153 0
0.249005 -0.416102 -0.088985 0 127 127
-0.173285 0.015899 0.209817 0 255 0
0.233689 0.021887 -0.104272 0 127 127
0.188385 0.100403 0.220507 76 0 153
0.233689 -0.365707 -0.057917 0 127 127
0.186913 0.481689 0.220507 76 153 0
0.181009 -0.601540 -0.001414 0 0 255
0.079639 -0.598302 0.214125 0 0 255
-0.225773 -0.672539 0.121193 76 153 0
-0.241088 0.000020 -0.229023 76 153 0
0.130607 -0.007689 -0.230021 153 0 76
-0.225773 -0.760886 -0.101668 76 153 0
-0.225773 0.669076 0.086794 76 153 0
0.222787 -0.180065 0.235822 76 0 153
0.249005 0.661002 0.107256 0 127 127
-0.087187 0.322067 0.060676 127 127 0
-0.043218 0.015899 0.150008 0 255 0
-0.041982 -0.144322 0.220507 76 0 153
-0.241088 -0.666655 0.018646 76 153 0
0.031011 0.633339 -0.198751 127 0 127
-0.225773 0.762291 -0.058083 76 153 0
0.249005 0.747619 0.217238 0 127 127
-0.241088 0.360393 -0.149959 76 153 0
-0.202739 -0.274953 0.129994 255 0 0
-0.109186 -0.743319 0.235822 76 0 153
0.249005 0.286145 0.055442 0 127 127
-0.241088 0.641009 0.133463 76 153 0
0.103228 0.653759 0.131533 127 0 127
0.092221 0.015899 -0.097796 0 255 0
-0.222954 0.950993 0.141876 153 76 0
0.066592 -0.581120 -0.219223 0 0 255
-0.225773 -0.083251 0.175027 76 153 0
-0.035655 -0.601540 0.131889 0 0 255
-0.232392 -0.771463 0.220507 76 0 153
-0.161915 0.015899 0.098153 0 255 0
-0.114076 -0.295373 -0.024661 255 0 0
0.233689 -0.148231 -0.167427 0 127 127
0.046489 0.633339 0.108881 127 0 127
0.137604 0.036320 0.042787 0 255 0
-0.136539 -0.901326 0.081596 76 0 153
0.054474 -0.463216 -0.235127 153 0 76
-0.241088 0.470172 0.139329 76 153 0
-0.225773 -0.545021 0.152860 76 153 0
-0.050178 0.653759 -0.208726 127 0 127
0.233689 0.204600 0.195879 0 127 127
0.109816 -0.880906 0.139022 76 0 153
0.121897 0.130314 0.220507 76 0 153
-0.008759 0.015899 0.059388 0 255 0
0.128585 -0.880906 -0.196747 76 0 153
-0.200080 -0.901326 0.011912 76 0 153
-0.241088 -0.141876 0.082464 76 153 0
0.105131 0.342487 -0.201910 127 127 0
-0.194612 -0.633396 -0.230021 153 0 76
0.105112 0.653759 -0.007464 127 0 127
0.232063 -0.295373 -0.177950 255 0 0
-0.111017 0.036320 -0.063617 0 255 0
0.040092 -0.281334 0.234887 76 0 153
-0.069121 0.036320 -0.068408 0 255 0
-0.225773 0.636131 -0.046071 76 153 0
0.201309 -0.581120 0.130118 0 0 255
0.233689 0.374332 0.172239 0 127 127
0.074281 0.950993 -0.160325 153 76 0
-0.134410 0.131128 -0.235127 153 0 76
-0.241088 -0.114390 0.015346 76 153 0
-0.001669 0.416869 0.235822 76 153 0
-0.225773 0.376884 -0.087350 76 153 0
-0.241088 -0.256337 -0.227792 76 153 0
-0.225773 -0.275109 0.154062 76 153 0
-0.054957 0.811542 -0.230021 153 0 76
0.172636 -0.581120 0.164038 0 0 255
-0.197795 0.015899 0.048935 0 255 0
0.070297 -0.274953 -0.076551 255 0 0
0.037972 -0.308140 -0.235127 153 0 76
-0.076825 0.775346 0.220507 76 153 0
-0.015581 -0.707322 -0.230021 153 0 76
-0.167350 -0.295373 0.077767 255 0 0
-0.034280 -0.581120 -0.047882 0 0 255
-0.241088 0.668605 -0.160018 76 153 0
-0.154828 0.188186 0.235822 76 0 153
-0.241088 -0.811284 -0.205367 76 153 0
-0.102719 -0.274953 -0.207186 255 0 0
0.075681 0.138177 0.235822 76 0 153
0.138094 -0.857167 0.235822 76 0 153
0.249005 0.005100 0.110506 0 127 127
0.224208 -0.426004 0.220507 76 0 153
0.249005 0.007798 0.015063 0 127 127
0.197341 -0.901326 -0.193598 76 0 153
0.233689 -0.150315 -0.132561 0 127 127
-0.058273 0.342487 -0.082784 127 127 0
0.228819 0.322067 0.156952 127 127 0
-0.225773 0.379219 -0.053174 76 153 0
0.233689 0.811000 -0.015766 0 127 127
-0.059916 -0.714794 0.220507 76 0 153
0.084471 0.886512 0.220507 76 153 0
0.147060 -0.811577 0.235822 76 0 153
0.233689 0.217184 0.046752 0 127 127
0.215488 -0.274953 0.157290 255 0 0
0.176945 -0.067287 0.235822 76 0 153
-0.221779 -0.901326 -0.013374 76 0 153
-0.113228 0.930572 0.202149 153 76 0
-0.152984 0.036320 -0.039212 0 255 0
0.233689 -0.475471 0.011162 0 127 127
0.074232 0.036320 -0.090240 0 255 0
0.249005 0.416614 -0.224114 0 127 127
-0.103427 -0.468506 -0.235127 153 0 76
0.090925 0.751197 0.235822 76 153 0
0.091825 0.036320 -0.139017 0 255 0
-0.225773 -0.668850 0.055178 76 153 0
-0.190038 0.930572 -0.019467 153 76 0
-0.161737 -0.581120 0.183344 0 0 255
0.232826 0.213075 0.235822 76 0 153
-0.187369 0.633339 0.080822 127 0 127
0.200989 0.895858 -0.230021 153 0 76
-0.225773 -0.113249 0.144328 76 153 0
0.249005 -0.811367 -0.041785 0 127 127
-0.102446 -0.677220 0.235822 76 0 153
0.069564 -0.901326 -0.194603 76 0 153
-0.225773 -0.729277 0.066033 76 153 0
-0.161700 0.042233 0.235822 76 0 153
-0.089955 0.133069 -0.230021 153 0 76
-0.060398 -0.880906 0.109358 76 0 153
0.160960 0.406197 0.220507 76 153 0
-0.012915 -0.601540 -0.174647 0 0 255
-0.225773 -0.525334 0.069415 76 153 0
-0.173879 -0.601540 -0.119687 0 0 255
-0.225773 -0.469383 -0.109994 76 153 0
0.018103 -0.880906 0.000652 76 0 153
0.233689 -0.456806 0.032584 0 127 127
0.249005 0.129269 -0.219667 0 127 127
0.216651 0.653759 0.019289 127 0 127
0.023468 0.655753 0.235822 76 153 0
0.052512 0.653759 0.011682 127 0 127
0.186988 0.342487 0.121497 127 127 0
-0.225773 0.539019 0.008610 76 153 0
0.249005 0.927381 -0.242208 0 127 127
-0.225773 0.630336 -0.117992 76 153 0
-0.004462 -0.274953 -0.134641 255 0 0
-0.126988 -0.295373 0.022676 255 0 0
0.233689 -0.382744 -0.157406 0 127 127
0.233689 0.163958 -0.140230 0 127 127
0.068069 -0.295373 -0.207425 255 0 0
0.051509 -0.274953 0.109098 255 0 0
0.001040 0.641969 0.235822 76 153 0
-0.098998 0.637725 0.220507 76 153 0
-0.080251 -0.601540 0.129263 0 0 255
0.053601 0.071527 0.235822 76 0 153
-0.225773 0.403977 -0.196198 76 153 0
0.019501 0.036320 -0.154264 0 255 0
0.233689 -0.397174 -0.211044 0 127 127
-0.129286 0.015899 -0.166582 0 255 0
-0.225773 -0.653599 -0.019132 76 153 0
-0.119298 0.342487 0.108184 127 127 0
0.104520 -0.601540 -0.064701 0 0 255
0.023776 0.342487 -0.172256 127 127 0
-0.057701 0.015899 -0.032002 0 255 0
-0.225773 0.394645 0.131338 76 153 0
0.247728 0.011834 0.226665 76 0 153
0.176185 0.653759 -0.003835 127 0 127
0.249005 0.139177 0.074714 0 127 127
-0.097321 0.248571 -0.235127 153 0 76
-0.110616 0.950993 -0.192198 153 76 0
-0.241088 0.696597 -0.176910 76 153 0
-0.241088 0.924781 -0.087374 76 153 0
0.147115 0.653759 -0.073578 127 0 127
0.116062 0.950560 0.220507 76 153 0
-0.013591 -0.079004 -0.230021 153 0 76
0.249005 -0.202576 -0.071319 0 127 127
-0.225773 -0.813295 0.008170 76 153 0
0.249005 0.882049 -0.016962 0 127 127
0.233090 -0.295373 0.194610 255 0 0
-0.225773 -0.518837 -0.113588 76 153 0
0.220330 0.950993 0.126522 153 76 0
-0.225773 -0.585972 0.013052 76 153 0
-0.225773 -0.599243 0.050337 0 0 255
0.233689 -0.170621 -0.232285 153 0 76
0.064502 0.322067 0.088137 127 127 0
-0.130734 -0.350222 0.220507 76 0 153
-0.179040 -0.053920 0.220507 76 0 153
0.143020 0.281535 -0.235127 153 0 76
-0.138416 -0.543032 0.220507 76 0 153
0.233689 -0.009560 -0.064440 0 127 127
0.249005 0.503073 0.212796 0 127 127
0.128206 -0.880906 -0.136807 76 0 153
0.233689 -0.458286 -0.177503 0 127 127
0.249005 0.623410 0.149799 0 127 127
0.249005 -0.238951 -0.010081 0 127 127
0.157868 -0.439267 0.235822 76 0 153
0.003333 0.950993 0.097403 153 76 0
-0.107753 -0.013937 -0.230021 153 0 76
0.088309 0.824063 0.220507 76 153 0
-0.037165 -0.901326 0.035348 76 0 153
0.249005 -0.603370 -0.225841 0 127 127
-0.177963 0.608232 0.235822 76 153 0
0.039623 0.318870 0.220507 76 0 153
-0.003625 -0.023584 -0.230021 153 0 76
0.201887 -0.831771 0.235822 76 0 153
-0.170428 0.950993 -0.022755 153 76 0
0.080187 0.653759 -0.145877 127 0 127
-0.119128 0.211787 -0.230021 153 0 76
0.233689 0.471055 0.084051 0 127 127
-0.171496 0.412515 0.235822 76 153 0
0.020147 0.653759 0.084305 127 0 127
0.109595 0.633339 -0.099788 127 0 127
0.005888 0.036320 -0.025338 0 255 0
-0.225773 0.146101 -0.029341 76 153 0
0.249005 -0.149047 0.135982 0 127 127
-0.182327 0.950993 0.117164 153 76 0
-0.114471 0.015899 0.058825 0 255 0
-0.105112 -0.236657 0.235822 76 0 153
-0.030614 0.143110 -0.235127 153 0 76
-0.030640 0.036320 -0.083624 0 255 0
0.123547 0.057694 -0.250442 153 0 76
0.249005 -0.596672 0.168740 0 127 127
-0.241088 -0.897778 -0.103859 76 153 0
-0.225773 -0.008851 0.201557 76 153 0
0.121066 0.342487 -0.084863 127 127 0
-0.241088 0.242497 0.113918 76 153 0
-0.219885 0.950993 -0.028349 153 76 0
-0.210245 0.653759 -0.139658 127 0 127
0.030394 -0.241199 0.220507 76 0 153
-0.053553 0.633339 0.186489 127 0 127
0.145262 0.141243 0.220507 76 0 153
-0.006649 0.930572 0.049693 153 76 0
-0.225773 0.932029 -0.176480 153 76 0
-0.207151 -0.880906 0.074984 76 0 153
-0.225773 -0.672690 0.209053 76 153 0
0.233689 -0.780430 -0.122774 0 127 127
0.224277 0.633339 -0.070387 127 0 127
-0.241088 -0.146146 0.053937 76 153 0
0.157506 0.607236 -0.230021 153 0 76
0.141058 -0.036649 0.235822 76 0 153
0.081113 -0.274953 0.218057 255 0 0
0.095169 -0.581120 0.088529 0 0 255
-0.241088 -0.848398 -0.060964 76 153 0
0.109903 -0.128175 0.220507 76 0 153
-0.033272 0.322067 -0.197398 127 127 0
-0.225773 0.554689 -0.016730 76 153 0
-0.198337 -0.336333 0.255941 153 0 76
-0.206208 -0.329349 0.235822 76 0 153
-0.085670 0.633339 0.167900 127 0 127
-0.241088 -0.632721 0.153696 76 153 0
0.249005 0.590110 -0.215364 0 127 127
0.196041 0.231539 -0.235127 153 0 76
0.184894 0.342487 -0.196830 127 127 0
-0.082713 -0.601540 -0.145423 0 0 255
0.233689 -0.103835 -0.190584 0 127 127
0.249005 -0.624025 -0.007976 0 127 127
-0.005313 0.237335 -0.230021 153 0 76
0.233689 -0.724918 -0.039254 0 127 127
-0.225773 0.623284 -0.212754 76 153 0
-0.241088 -0.211159 0.159139 76 153 0
0.160958 0.322067 -0.034055 127 127 0
-0.070037 0.950993 0.116026 153 76 0
-0.093157 0.015899 -0.146680 0 255 0
0.233689 0.235380 0.111515 0 127 127
-0.225773 0.065266 0.047708 76 153 0
-0.159534 -0.052873 -0.230021 153 0 76
-0.031595 0.469483 -0.235127 153 0 76
-0.241088 -0.623857 -0.192182 76 153 0
0.037211 -0.601540 0.181277 0 0 255
-0.058450 -0.295373 -0.089513 255 0 0
-0.113534 0.692455 -0.230021 153 0 76
-0.225773 0.510120 -0.233384 153 0 76
0.019057 0.902003 0.220507 76 153 0
0.052376 0.391978 0.220507 76 153 0
0.233689 0.344815 -0.211143 0 127 127
-0.147402 0.950993 0.063277 153 76 0
0.126767 -0.366608 0.235822 76 0 153
0.002661 0.036320 0.014755 0 255 0
0.185458 0.273634 0.220507 76 0 153
0.233689 -0.797213 -0.178030 0 127 127
0.249005 0.090894 0.027479 0 127 127
0.014703 0.322067 0.037483 127 127 0
0.142641 -0.082111 -0.230021 153 0 76
0.051547 0.322067 -0.139543 127 127 0
-0.225773 -0.380727 0.179679 76 153 0
0.233689 0.410309 -0.113998 0 127 127
0.082524 -0.581120 0.127895 0 0 255
0.059472 -0.340950 0.235822 76 0 153
-0.028111 -0.048841 0.235822 76 0 153
0.233689 -0.681536 0.002540 0 127 127
0.247728 0.781398 0.226285 76 153 0
0.056226 -0.813682 0.220507 76 0 153
0.142406 -0.581120 0.163755 0 0 255
-0.163568 0.036320 0.087625 0 255 0
-0.125516 -0.826619 -0.250442 76 0 153
-0.057841 -0.581120 0.211252 0 0 255
0.233689 0.597581 0.025534 0 127 127
-0.113712 0.930572 -0.217173 153 76 0
0.249005 -0.180472 0.044550 0 127 127
0.249005 -0.300476 -0.160981 0 127 127
0.110939 -0.581120 -0.155165 0 0 255
0.086972 0.906254 -0.250442 204 51 127
0.233689 0.116801 0.189044 0 127 127
0.233689 -0.649719 -0.061439 0 127 127
-0.032102 0.015899 0.058798 0 255 0
0.006238 -0.124046 0.235822 76 0 153
0.249005 0.634766 -0.024838 0 127 127
-0.108749 -0.435134 0.235822 76 0 153
0.114035 -0.016513 -0.250442 153 0 76
-0.225773 -0.335929 -0.049877 76 153 0
0.102736 -0.333974 0.235822 76 0 153
-0.198598 0.083670 0.255941 153 76 0
-0.058476 -0.901326 0.047190 76 0 153
0.117822 -0.601540 -0.173799 0 0 255
-0.059009 -0.295373 0.151044 255 0 0
-0.112013 -0.547965 0.235822 76 0 153
-0.188624 -0.109690 -0.230021 153 0 76
0.133192 0.950993 -0.073887 153 76 0
0.232887 -0.303785 -0.235127 153 0 76
-0.097884 -0.295373 0.171298 255 0 0
-0.241088 0.273637 0.106265 76 153 0
-0.150674 0.322067 -0.056325 127 127 0
0.249005 -0.646114 0.038484 0 127 127
-0.239719 -0.107252 0.220507 76 0 153
-0.009114 -0.760815 0.235822 76 0 153
-0.190482 -0.375447 0.235822 76 0 153
0.233689 0.437095 -0.121096 0 127 127
0.189791 0.653759 -0.183678 127 0 127
0.233689 0.488784 0.143635 0 127 127
0.030296 0.653759 0.196180 127 0 127
0.233689 -0.529124 0.100166 0 127 127
0.018789 0.202012 -0.230021 153 0 76
0.119617 0.862931 -0.250442 204 51 127
-0.083270 -0.816250 0.235822 76 0 153
-0.225773 0.769592 -0.112067 76 153 0
0.005648 0.930572 -0.011594 153 76 0
0.249005 0.782460 0.180791 0 127 127
0.233689 0.708397 0.008296 0 127 127
-0.225773 -0.164761 -0.098199 76 153 0
-0.225773 -0.289593 -0.153592 76 153 0
-0.241088 0.521940 0.205954 76 153 0
0.038660 0.653759 -0.115778 127 0 127
0.233689 0.886878 0.199804 0 127 127
-0.056738 0.930572 -0.193484 153 76 0
0.223740 0.036320 -0.177265 0 255 0
-0.007778 -0.581120 -0.099838 0 0 255
-0.225570 -0.044407 0.220507 76 0 153
-0.152344 0.015899 0.021241 0 255 0
-0.124612 -0.581120 0.133888 0 0 255
-0.037568 0.036320 0.042275 0 255 0
0.233689 -0.326095 -0.167151 0 127 127
-0.241088 -0.600155 -0.066231 76 153 0
-0.190892 -0.456261 0.235822 76 0 153
-0.127920 0.102266 0.220507 76 0 153
0.233689 -0.309203 0.211112 0 127 127
0.038139 -0.652695 0.235822 76 0 153
-0.080454 0.397475 -0.230021 153 0 76
-0.121487 -0.518712 -0.230021 153 0 76
-0.241088 -0.687216 -0.140803 76 153 0
0.249005 -0.360844 0.011669 0 127 127
-0.073602 -0.635076 0.220507 76 0 153
-0.200950 -0.174561 0.220507 76 0 153
0.042600 -0.880906 0.007050 76 0 153
0.045947 -0.831997 0.220507 76 0 153
-0.241088 -0.113580 -0.083913 76 153 0
0.230459 -0.637434 0.220507 76 0 153
0.235174 -0.505115 0.219230 0 127 127
0.032617 0.930572 -0.235119 153 0 76
-0.225773 0.235369 -0.136419 76 153 0
0.112102 0.233226 -0.235127 153 0 76
0.022546 -0.756565 0.220507 76 0 153
-0.225773 0.464581 -0.074107 76 153 0
-0.225773 0.163848 0.043887 76 153 0
0.031971 -0.274953 -0.089166 255 0 0
-0.043136 0.950993 0.099090 153 76 0
-0.225773 -0.350976 -0.028712 76 153 0
-0.241088 -0.866609 0.004226 76 153 0
0.224205 -0.581120 0.141266 0 0 255
0.249005 0.647585 -0.063955 0 127 127
0.174068 -0.880906 -0.185888 76 0 153
0.024375 0.845774 -0.235127 204 51 127
0.012820 0.950993 0.120857 153 76 0
-0.044360 0.342487 0.132287 127 127 0
-0.065634 -0.901326 -0.142092 76 0 153
-0.118766 0.653759 0.059601 127 0 127
-0.225773 0.624904 -0.234672 153 0 76
-0.225773 -0.800830 0.073072 76 153 0
-0.241088 -0.416218 -0.028673 76 153 0
-0.024368 0.036320 0.158324 0 255 0
-0.156251 -0.880906 0.118713 76 0 153
0.191681 0.633339 0.010626 127 0 127
0.108501 -0.601540 0.125323 0 0 255
-0.113464 -0.581120 0.089100 0 0 255
0.156746 0.930572 -0.123956 153 76 0
0.233689 -0.676462 -0.108610 0 127 127
0.233689 0.424058 0.160955 0 127 127
0.233689 -0.129237 -0.204952 0 127 127
0.249005 -0.107276 0.100905 0 127 127
0.142797 -0.601540 0.079585 0 0 255
-0.241088 0.139894 0.195503 76 153 0
-0.241088 0.473773 0.060555 76 153 0
0.233745 0.322647 -0.250442 0 127 127
0.032349 0.366132 0.220507 76 153 0
-0.155338 0.758141 0.235822 76 153 0
0.223854 -0.880906 -0.104474 76 0 153
0.234631 -0.040022 0.220507 76 0 153
-0.225773 -0.287971 -0.005021 255 0 0
-0.241088 -0.077388 0.055339 76 153 0
0.002914 -0.581120 0.046638 0 0 255
-0.128474 0.015899 0.159234 0 255 0
0.225832 -0.295373 -0.122933 255 0 0
-0.113711 0.761030 0.235822 76 153 0
-0.120081 0.342487 0.163443 127 127 0
0.068376 -0.880906 0.065077 76 0 153
0.081408 -0.601540 -0.044727 0 0 255
-0.241088 -0.472418 -0.069899 76 153 0
-0.004204 -0.601540 0.105886 0 0 255
-0.237464 -0.901326 0.165022 76 153 0
-0.241088 0.899622 -0.165036 76 153 0
0.233689 -0.740450 0.143086 0 127 127
0.030482 -0.555264 -0.230021 153 0 76
0.203866 0.313578 0.220507 76 0 153
-0.225773 0.034929 0.059554 76 153 0
-0.135182 -0.605392 -0.235127 153 0 76
0.030846 -0.209476 0.220507 76 0 153
-0.225773 -0.029570 -0.208995 76 153 0
-0.139185 0.015899 -0.139039 0 255 0
0.031236 0.322067 -0.223179 127 127 0
0.017557 0.861150 0.220507 76 153 0
0.128941 -0.433242 0.235822 76 0 153
0.091601 0.950993 0.034351 153 76 0
-0.116043 -0.809155 -0.230021 153 0 76
-0.045585 0.322067 -0.101090 127 127 0
-0.064185 0.084096 -0.235127 153 0 76
-0.113864 0.015899 0.109022 0 255 0
0.233689 0.521368 -0.185230 0 127 127
-0.241088 0.600883 0.066563 76 153 0
0.052233 -0.274953 -0.022149 255 0 0
0.249005 -0.279074 0.206207 0 127 127
0.178575 0.341525 -0.235127 153 0 76
0.074318 -0.446641 -0.230021 153 0 76
0.224214 0.224050 -0.230021 153 0 76
-0.131611 -0.066269 -0.230021 153 0 76
0.160510 -0.889674 0.235822 76 0 153
0.168707 0.015899 0.038794 0 255 0
0.249005 0.523803 -0.060218 0 127 127
0.226919 -0.601540 -0.131637 0 0 255
-0.177282 0.342487 -0.053624 127 127 0
0.217088 -0.670246 -0.230021 153 0 76
0.056973 0.950993 -0.022541 153 76 0
-0.092596 0.855480 0.235822 76 153 0
-0.241088 -0.325599 -0.156500 76 153 0
0.035201 0.604960 0.235822 76 153 0
-0.158686 0.661669 -0.230021 153 0 76
-0.111103 -0.601540 0.122926 0 0 255
0.233689 -0.204391 0.213906 0 127 127
0.167875 0.902213 -0.250442 204 51 127
0.249005 0.118503 0.142451 0 127 127
-0.203253 0.309071 -0.230021 153 0 76
-0.225773 -0.705908 0.116824 76 153 0
0.233689 -0.418647 -0.066960 0 127 127
0.042690 -0.901326 0.122838 76 0 153
0.147041 0.178844 0.235822 76 0 153
-0.241088 -0.121097 0.039392 76 153 0
-0.204839 -0.803083 -0.235127 153 0 76
-0.241088 0.937363 -0.070647 76 153 0
-0.241088 0.656169 -0.055415 76 153 0
-0.194633 0.342487 0.090660 127 127 0
-0.225773 0.887218 -0.158104 76 153 0
-0.241088 -0.310959 0.127750 76 153 0
-0.241088 -0.254507 0.189235 76 153 0
-0.003667 0.633339 0.108261 127 0 127
0.033652 0.105575 0.220507 76 0 153
-0.205226 -0.581120 -0.011481 0 0 255
-0.239812 -0.590154 0.233927 76 0 153
0.096212 -0.364831 0.220507 76 0 153
-0.241088 0.432690 -0.179500 76 153 0
0.249005 0.943049 -0.024303 0 127 127
-0.241088 -0.533982 0.002085 76 153 0
0.161354 0.930572 -0.044302 153 76 0
-0.199918 0.603300 -0.230021 153 0 76
0.249005 -0.362594 -0.224929 0 127 127
0.116067 0.930572 0.013164 153 76 0
0.018260 -0.581120 -0.007508 0 0 255
0.183471 0.342487 0.095388 127 127 0
-0.209615 0.950993 0.110581 153 76 0
-0.178105 0.892801 -0.230021 153 0 76
0.218821 -0.601540 -0.035879 0 0 255
0.061525 -0.189456 0.235822 76 0 153
-0.082814 0.036320 -0.215566 0 255 0
-0.105203 -0.376693 0.235822 76 0 153
0.146562 -0.880906 -0.220997 76 0 153
0.110944 0.015899 -0.019215 0 255 0
-0.175033 0.133327 -0.230021 153 0 76
0.233689 0.600254 -0.115908 0 127 127
0.059452 -0.025960 0.235822 76 0 153
-0.225773 -0.400363 0.186319 76 153 0
-0.125047 -0.849781 -0.230021 153 0 76
0.139027 -0.880906 0.078941 76 0 153
-0.022535 0.930572 0.067256 153 76 0
0.109439 0.342487 0.196496 127 127 0
-0.117139 0.865494 0.235822 76 153 0
-0.200694 0.643309 0.214125 127 0 127
0.097185 0.633339 0.180483 127 0 127
-0.241088 -0.633862 0.100019 76 153 0
-0.123331 -0.269560 -0.230021 153 0 76
0.074564 -0.502287 -0.230021 153 0 76
0.127625 -0.211266 0.235822 76 0 153
0.001477 -0.601540 -0.064576 0 0 255
0.222254 0.036320 -0.020452 0 255 0
0.249005 -0.678515 -0.222073 0 127 127
0.066927 -0.032630 -0.230021 153 0 76
0.200089 0.653759 0.006389 127 0 127
0.085173 -0.517027 0.220507 76 0 153
-0.220371 0.075885 -0.244728 153 0 76
