-0.816373 0.406440 0.295490 0.000000 0.500000 0.500000
0.639761 0.006514 -0.232156 0.000000 0.500000 0.500000
-0.142217 0.147386 0.205258 0.300000 0.600000 0.000000
0.664174 -0.462456 -0.174425 0.000000 0.500000 0.500000
-0.578912 0.055827 -0.053076 0.000000 0.000000 1.000000
-0.578912 0.345782 -0.078533 0.000000 0.000000 1.000000
-0.084856 0.386953 0.046133 1.000000 0.000000 0.000000
0.221443 -0.048296 -0.233555 0.600000 0.000000 0.300000
0.370803 0.006929 -0.037196 0.300000 0.600000 0.000000
-0.055329 -0.439355 0.076884 1.000000 0.000000 0.000000
-0.142663 0.433724 -0.237527 0.000000 0.500000 0.500000
-0.316256 0.021634 -0.242650 0.600000 0.000000 0.300000
0.077562 -0.393882 -0.199276 1.000000 0.000000 0.000000
0.704379 -0.059553 0.143885 0.500000 0.000000 0.500000
0.548815 0.374660 -0.121925 0.800000 0.200000 0.500000
-0.021816 -0.012559 -0.143467 0.300000 0.600000 0.000000
-0.669858 -0.276083 0.211728 0.500000 0.500000 0.000000
-0.341765 -0.156852 0.205258 0.300000 0.600000 0.000000
0.242253 0.195012 0.212079 0.300000 0.000000 0.600000
-0.371677 -0.100340 -0.242650 0.600000 0.000000 0.300000
0.199517 -0.393882 -0.212819 1.000000 0.000000 0.000000
-0.289235 -0.393882 0.027183 1.000000 0.000000 0.000000
-0.294231 0.405142 -0.001720 1.000000 0.000000 0.000000
-0.157042 -0.439355 -0.096183 1.000000 0.000000 0.000000
0.639761 0.284230 -0.198803 0.000000 0.500000 0.500000
0.146847 0.433724 -0.228073 0.000000 0.500000 0.500000
0.495373 0.118907 -0.233555 0.600000 0.000000 0.300000
-0.165948 -0.312955 0.212079 0.300000 0.600000 0.000000
-0.169738 -0.412071 0.084616 1.000000 0.000000 0.000000
0.209563 0.159381 -0.242650 0.600000 0.000000 0.300000
0.539537 0.406440 0.302307 0.000000 0.500000 0.500000
0.096287 0.132027 0.193890 0.300000 0.000000 0.600000
-0.597101 -0.378591 0.038311 0.000000 0.000000 1.000000
-0.619677 -0.439355 0.011660 1.000000 0.000000 0.000000
-0.738802 -0.007212 -0.238087 0.000000 1.000000 0.000000
0.739801 0.087663 -0.221175 0.000000 0.500000 0.500000
-0.156223 0.386953 -0.142640 1.000000 0.000000 0.000000
0.676139 0.293676 -0.136244 0.000000 0.500000 0.500000
0.179374 0.433724 0.016946 0.000000 0.500000 0.500000
-0.578912 -0.167375 -0.158586 0.000000 0.000000 1.000000
-0.694613 0.038242 -0.238087 0.000000 1.000000 0.000000
0.341030 -0.506900 -0.192615 0.500000 0.000000 0.500000
0.255731 -0.289081 0.193890 0.300000 0.000000 0.600000
0.548815 0.125885 -0.036355 0.800000 0.200000 0.500000
-0.769898 -0.373636 -0.211833 0.000000 1.000000 0.000000
-0.270473 -0.539298 -0.192615 0.500000 0.000000 0.500000
-0.300141 -0.249661 -0.233555 0.600000 0.000000 0.300000
-0.301512 0.211009 -0.242650 0.600000 0.000000 0.300000
-0.611901 -0.412071 0.046324 1.000000 0.000000 0.000000
-0.671527 -0.497167 -0.254607 0.000000 1.000000 0.000000
-0.597101 -0.163407 -0.220365 0.000000 0.000000 1.000000
0.326486 0.386953 0.049387 1.000000 0.000000 0.000000
-0.199143 0.160750 0.193890 0.300000 0.600000 0.000000
0.799821 0.433724 0.005486 0.000000 0.500000 0.500000
0.049689 -0.012559 0.064735 0.300000 0.600000 0.000000
0.567004 0.141695 0.084210 0.800000 0.200000 0.500000
-0.733520 -0.188907 0.111010 0.600000 0.300000 0.000000
-0.453187 0.386953 0.065465 1.000000 0.000000 0.000000
-0.261398 -0.393882 -0.214594 1.000000 0.000000 0.000000
0.375191 0.406440 0.023675 0.000000 0.500000 0.500000
0.721612 -0.483233 -0.181822 0.000000 0.500000 0.500000
-0.351675 0.407630 0.334871 0.000000 0.500000 0.500000
-0.240959 0.135180 -0.233555 0.600000 0.000000 0.300000
-0.537463 -0.393882 -0.158643 1.000000 0.000000 0.000000
-0.578912 0.164833 -0.123829 0.000000 0.000000 1.000000
0.548922 -0.234151 0.218862 0.800000 0.200000 0.500000
0.049392 -0.099081 -0.242650 0.600000 0.000000 0.300000
-0.751709 0.079152 0.155819 0.500000 0.500000 0.000000
0.397495 -0.412071 -0.162631 1.000000 0.000000 0.000000
-0.372632 -0.076194 0.193890 0.300000 0.600000 0.000000
0.548815 -0.266491 0.062614 0.800000 0.200000 0.500000
-0.433244 0.405142 -0.211707 1.000000 0.000000 0.000000
-0.578912 -0.010763 -0.120544 0.300000 0.600000 0.000000
0.458111 0.049565 -0.242650 0.600000 0.000000 0.300000
-0.050417 -0.080622 0.212079 0.300000 0.600000 0.000000
0.265664 0.433724 -0.058120 0.000000 0.500000 0.500000
-0.688047 -0.380938 0.188403 0.500000 0.500000 0.000000
0.831360 0.406440 -0.263844 0.000000 0.500000 0.500000
0.721612 -0.045225 -0.196485 0.000000 0.500000 0.500000
-0.040544 0.405142 -0.126542 1.000000 0.000000 0.000000
-0.048186 -0.439355 -0.070980 1.000000 0.000000 0.000000
-0.869341 0.433724 -0.214913 0.000000 0.500000 0.500000
-0.346245 0.006929 0.018954 0.300000 0.600000 0.000000
0.721612 0.073428 -0.176586 0.000000 0.500000 0.500000
-0.731934 0.433724 -0.158852 0.000000 0.500000 0.500000
0.548815 -0.374187 -0.027681 0.800000 0.200000 0.500000
-0.741710 0.406440 -0.285585 0.000000 0.500000 0.500000
0.518490 -0.451977 -0.219898 0.500000 0.000000 0.500000
-0.686697 0.425291 -0.365411 0.000000 0.500000 0.500000
-0.659487 -0.509930 0.162074 0.300000 0.000000 0.600000
-0.062209 -0.469443 0.189358 0.300000 0.000000 0.600000
0.676139 -0.050201 0.120508 0.300000 0.600000 0.000000
-0.573578 0.406440 0.194788 0.000000 0.500000 0.500000
0.657950 -0.061413 -0.198079 0.000000 0.500000 0.500000
0.122949 0.405142 0.081766 1.000000 0.000000 0.000000
-0.706236 -0.201775 -0.056246 0.600000 0.300000 0.000000
-0.737113 -0.269100 -0.238087 0.000000 1.000000 0.000000
-0.439020 -0.393882 0.076823 1.000000 0.000000 0.000000
0.272792 0.074311 0.212079 0.300000 0.000000 0.600000
-0.689169 0.406440 -0.169348 0.000000 0.500000 0.500000
-0.369729 0.386953 -0.030339 1.000000 0.000000 0.000000
0.064990 -0.173784 0.212079 0.300000 0.000000 0.600000
0.687518 -0.230180 -0.163712 0.600000 0.000000 0.300000
0.241987 -0.412071 0.178810 1.000000 0.000000 0.000000
0.138727 0.146292 0.193890 0.300000 0.000000 0.600000
0.187578 -0.331865 0.212079 0.300000 0.000000 0.600000
-0.764354 0.394796 -0.161780 0.000000 1.000000 0.000000
-0.118905 -0.412071 0.017910 1.000000 0.000000 0.000000
0.386407 0.006929 -0.210747 0.300000 0.600000 0.000000
-0.219549 0.120025 0.205258 0.300000 0.600000 0.000000
0.419108 0.386953 -0.106601 1.000000 0.000000 0.000000
0.548815 -0.111900 0.171772 0.800000 0.200000 0.500000
-0.369612 0.405142 0.016680 1.000000 0.000000 0.000000
-0.375288 -0.471186 0.183545 0.300000 0.000000 0.600000
0.657950 -0.199758 -0.235719 0.000000 0.500000 0.500000
-0.186346 -0.295119 0.212079 0.300000 0.600000 0.000000
-0.242222 0.406440 -0.335168 0.000000 0.500000 0.500000
-0.696517 -0.346787 0.143885 0.500000 0.500000 0.000000
0.219208 -0.286192 0.212079 0.300000 0.000000 0.600000
0.097907 -0.439355 0.107206 1.000000 0.000000 0.000000
-0.732076 0.429251 0.225736 0.000000 0.500000 0.500000
0.768892 0.406440 -0.015389 0.000000 0.500000 0.500000
0.074018 -0.439355 -0.059229 1.000000 0.000000 0.000000
-0.255635 0.406440 -0.216453 0.000000 0.500000 0.500000
0.306900 -0.530392 0.162074 0.300000 0.000000 0.600000
-0.734103 -0.359794 0.143885 0.500000 0.500000 0.000000
-0.669858 -0.169893 -0.171336 0.000000 1.000000 0.000000
-0.125839 -0.101240 0.212079 0.300000 0.600000 0.000000
-0.390315 0.433724 0.163517 0.000000 0.500000 0.500000
0.643041 -0.254414 -0.256277 0.000000 0.500000 0.500000
-0.493645 -0.311399 -0.233555 0.600000 0.000000 0.300000
-0.549858 0.433724 0.203561 0.000000 0.500000 0.500000
0.248091 0.105621 0.212079 0.300000 0.000000 0.600000
-0.674012 -0.046359 0.221582 0.500000 0.500000 0.000000
0.003405 0.433724 -0.355034 0.000000 0.500000 0.500000
0.211230 0.006929 -0.142876 0.300000 0.600000 0.000000
0.567004 0.091995 0.120112 0.800000 0.200000 0.500000
0.111858 -0.412071 0.112113 1.000000 0.000000 0.000000
0.680686 -0.233263 0.132682 0.600000 0.000000 0.300000
-0.539087 0.405142 -0.227538 1.000000 0.000000 0.000000
0.356554 -0.432203 -0.192615 0.500000 0.000000 0.500000
0.809513 0.433724 0.218092 0.000000 0.500000 0.500000
0.083637 0.405142 0.015649 1.000000 0.000000 0.000000
0.639761 -0.301890 0.148134 0.500000 0.000000 0.500000
0.613131 0.433724 -0.323200 0.000000 0.500000 0.500000
0.109276 -0.412071 -0.006521 1.000000 0.000000 0.000000
0.676714 -0.211991 0.019373 0.600000 0.000000 0.300000
-0.755287 0.202264 0.225736 0.500000 0.500000 0.000000
-0.127529 0.006929 -0.165433 0.300000 0.600000 0.000000
-0.142637 -0.012559 0.048744 0.300000 0.600000 0.000000
-0.597101 0.304166 0.020810 0.000000 0.000000 1.000000
0.680686 -0.071148 -0.163037 0.000000 0.500000 0.500000
0.711299 -0.502910 0.143885 0.500000 0.000000 0.500000
0.255967 -0.012559 0.019743 0.300000 0.600000 0.000000
0.474908 0.433724 0.139828 0.000000 0.500000 0.500000
0.279847 -0.197645 0.205258 0.300000 0.000000 0.600000
-0.173252 -0.104533 -0.242650 0.600000 0.000000 0.300000
-0.080461 0.075578 -0.233555 0.600000 0.000000 0.300000
-0.201103 -0.012559 -0.195840 0.300000 0.600000 0.000000
-0.516545 0.211812 -0.233555 0.600000 0.000000 0.300000
0.044916 0.405142 0.133828 1.000000 0.000000 0.000000
-0.597101 -0.044889 -0.071584 0.000000 0.000000 1.000000
0.089511 -0.012559 -0.031250 0.300000 0.600000 0.000000
-0.683836 0.038316 0.211758 0.500000 0.500000 0.000000
-0.705547 -0.382564 -0.156236 0.000000 1.000000 0.000000
0.548815 -0.260615 -0.122516 0.800000 0.200000 0.500000
-0.208123 0.386953 -0.021607 1.000000 0.000000 0.000000
0.769208 0.406440 0.097666 0.000000 0.500000 0.500000
0.144210 0.006929 -0.049896 0.300000 0.600000 0.000000
0.721612 0.103038 0.165989 0.500000 0.000000 0.500000
0.476059 -0.389930 0.209043 0.300000 0.000000 0.600000
-0.688047 -0.551862 -0.205311 0.000000 1.000000 0.000000
0.480395 -0.318149 -0.242650 0.600000 0.000000 0.300000
-0.727745 -0.202896 0.215102 0.500000 0.500000 0.000000
0.340328 -0.412071 -0.169789 1.000000 0.000000 0.000000
0.837136 0.406440 0.253259 0.000000 0.500000 0.500000
-0.272335 -0.439355 -0.189425 1.000000 0.000000 0.000000
0.043100 0.228028 -0.242650 0.600000 0.000000 0.300000
0.685126 0.296781 0.074803 0.000000 0.500000 0.500000
-0.728973 0.266548 0.151708 0.600000 0.000000 0.300000
0.442872 0.211506 0.212079 0.300000 0.000000 0.600000
0.721612 -0.392735 -0.175076 0.000000 0.500000 0.500000
0.444175 -0.061633 0.200711 0.300000 0.000000 0.600000
0.474550 0.433724 0.205355 0.000000 0.500000 0.500000
0.002172 -0.439355 -0.225533 1.000000 0.000000 0.000000
-0.005806 0.405142 -0.129157 1.000000 0.000000 0.000000
-0.078972 -0.133247 0.193890 0.300000 0.600000 0.000000
-0.751709 -0.296721 -0.232997 0.000000 1.000000 0.000000
0.175805 0.433724 0.143453 0.000000 0.500000 0.500000
-0.739502 0.433724 -0.023648 0.000000 0.500000 0.500000
0.168044 0.433724 0.089090 0.000000 0.500000 0.500000
0.192054 -0.412071 -0.009557 1.000000 0.000000 0.000000
-0.268165 -0.391576 -0.242650 0.600000 0.000000 0.300000
-0.380825 0.104688 0.200711 0.300000 0.600000 0.000000
-0.299086 0.397671 -0.242650 1.000000 0.000000 0.000000
0.697649 0.406440 -0.068767 0.000000 0.500000 0.500000
0.306697 0.405142 -0.159080 1.000000 0.000000 0.000000
-0.033566 -0.168943 0.212079 0.300000 0.600000 0.000000
-0.015049 0.003501 0.194436 0.300000 0.600000 0.000000
0.448314 -0.078801 -0.242650 0.600000 0.000000 0.300000
0.567004 0.011828 -0.120439 0.800000 0.200000 0.500000
0.739801 0.311212 0.196620 0.500000 0.000000 0.500000
0.428568 0.006929 0.072683 0.300000 0.600000 0.000000
0.639761 -0.422026 0.130977 0.500000 0.000000 0.500000
-0.238790 -0.458818 -0.219898 0.500000 0.000000 0.500000
-0.606597 0.406440 -0.283180 0.000000 0.500000 0.500000
0.057743 0.406440 -0.080506 0.000000 0.500000 0.500000
-0.086114 -0.433360 0.162074 0.300000 0.000000 0.600000
-0.729205 -0.468509 0.225736 0.500000 0.500000 0.000000
-0.688047 -0.319923 0.204975 0.500000 0.500000 0.000000
0.215087 0.006929 -0.031862 0.300000 0.600000 0.000000
-0.769898 0.419055 0.163613 0.000000 0.500000 0.500000
-0.552404 0.160995 0.193890 0.300000 0.600000 0.000000
0.481688 0.409686 -0.256276 0.000000 0.500000 0.500000
0.336170 0.025369 0.212079 0.300000 0.000000 0.600000
0.845672 0.433724 0.255999 0.000000 0.500000 0.500000
-0.317447 -0.439355 -0.117875 1.000000 0.000000 0.000000
0.499405 -0.412071 -0.172811 1.000000 0.000000 0.000000
0.739801 -0.244902 0.208359 0.500000 0.000000 0.500000
0.676139 -0.067773 0.090088 0.300000 0.600000 0.000000
0.035767 -0.412071 0.096559 1.000000 0.000000 0.000000
0.064677 -0.412071 -0.053542 1.000000 0.000000 0.000000
0.077868 -0.412071 -0.133982 1.000000 0.000000 0.000000
0.655181 -0.545451 0.141116 0.500000 0.000000 0.500000
0.285761 -0.043821 -0.242650 0.600000 0.000000 0.300000
0.080893 0.433724 -0.046705 0.000000 0.500000 0.500000
-0.588007 -0.401463 0.198207 0.000000 0.000000 1.000000
-0.578912 -0.260386 -0.122169 0.000000 0.000000 1.000000
0.452038 -0.412071 0.022409 1.000000 0.000000 0.000000
0.085393 0.006929 -0.221216 0.300000 0.600000 0.000000
-0.769898 -0.053634 -0.227616 0.000000 1.000000 0.000000
-0.561135 -0.412071 0.166734 1.000000 0.000000 0.000000
0.058894 -0.471186 -0.196120 0.500000 0.000000 0.500000
0.848936 0.408554 0.306049 0.000000 0.500000 0.500000
-0.110601 0.124990 0.212079 0.300000 0.600000 0.000000
-0.242159 -0.193349 -0.233555 0.600000 0.000000 0.300000
0.567004 -0.054720 -0.081410 0.800000 0.200000 0.500000
0.686716 -0.074196 -0.115078 0.300000 0.600000 0.000000
-0.109432 -0.330603 0.200711 0.300000 0.600000 0.000000
-0.275029 0.386953 0.140988 1.000000 0.000000 0.000000
-0.081590 0.433724 -0.363687 0.000000 0.500000 0.500000
-0.765645 0.264671 0.221483 0.500000 0.500000 0.000000
-0.597101 0.180242 -0.190825 0.000000 0.000000 1.000000
0.548815 0.151650 -0.050574 0.800000 0.200000 0.500000
-0.512973 -0.515323 -0.192615 0.500000 0.000000 0.500000
-0.747944 -0.522193 0.207547 0.500000 0.500000 0.000000
0.548815 0.075097 -0.113018 0.800000 0.200000 0.500000
0.220746 0.433724 0.000846 0.000000 0.500000 0.500000
-0.760079 -0.380602 0.225736 0.500000 0.500000 0.000000
0.246076 0.228837 0.205258 0.300000 0.000000 0.600000
0.143748 -0.439355 -0.030311 1.000000 0.000000 0.000000
0.567004 -0.188792 -0.146150 0.800000 0.200000 0.500000
0.234656 -0.150820 -0.233555 0.600000 0.000000 0.300000
0.652539 -0.514744 -0.169014 0.000000 0.500000 0.500000
0.471325 -0.393882 -0.101877 1.000000 0.000000 0.000000
-0.597101 -0.051349 0.100225 0.000000 0.000000 1.000000
0.468129 0.433724 -0.282653 0.000000 0.500000 0.500000
-0.578912 0.330494 -0.147417 0.000000 0.000000 1.000000
-0.669858 -0.104691 -0.254198 0.000000 1.000000 0.000000
0.696219 0.302426 -0.256277 0.000000 0.500000 0.500000
-0.578912 0.267316 -0.103361 0.000000 0.000000 1.000000
0.261744 0.406440 0.075512 0.000000 0.500000 0.500000
-0.228472 0.405142 0.075288 1.000000 0.000000 0.000000
0.680686 -0.243426 0.199555 0.600000 0.000000 0.300000
-0.391720 -0.061346 -0.242650 0.600000 0.000000 0.300000
0.207753 0.234450 0.205258 0.300000 0.000000 0.600000
0.478495 -0.501373 0.162074 0.300000 0.000000 0.600000
0.071307 -0.439355 -0.110782 1.000000 0.000000 0.000000
-0.306466 0.386953 0.077640 1.000000 0.000000 0.000000
0.277350 0.043879 0.205258 0.300000 0.000000 0.600000
0.010323 0.358749 -0.242650 0.600000 0.000000 0.300000
0.407817 0.405142 -0.074221 1.000000 0.000000 0.000000
0.785820 0.433724 -0.343237 0.000000 0.500000 0.500000
0.266621 0.006929 0.111397 0.300000 0.600000 0.000000
0.262714 0.146524 -0.233555 0.600000 0.000000 0.300000
-0.686240 -0.130455 0.142078 0.500000 0.500000 0.000000
0.657950 -0.264058 0.206678 0.500000 0.000000 0.500000
0.639761 -0.550571 0.184322 0.500000 0.000000 0.500000
0.475903 0.006929 -0.055300 0.300000 0.600000 0.000000
0.092245 -0.439355 -0.169134 1.000000 0.000000 0.000000
-0.060626 -0.254829 0.193890 0.300000 0.600000 0.000000
0.194076 0.406440 -0.165981 0.000000 0.500000 0.500000
0.685861 -0.273218 0.143885 0.500000 0.000000 0.500000
0.739589 0.293096 0.225736 0.500000 0.000000 0.500000
0.534032 -0.412071 -0.204726 1.000000 0.000000 0.000000
-0.289931 -0.430260 -0.209358 1.000000 0.000000 0.000000
0.739801 0.077693 0.217422 0.500000 0.000000 0.500000
0.567004 -0.101643 0.111790 0.800000 0.200000 0.500000
-0.716249 -0.539830 -0.174425 0.000000 1.000000 0.000000
0.657950 -0.035540 -0.212336 0.000000 0.500000 0.500000
-0.268526 -0.393882 -0.021258 1.000000 0.000000 0.000000
-0.496733 0.050556 -0.242650 0.600000 0.000000 0.300000
0.305648 0.406440 -0.260571 0.000000 0.500000 0.500000
0.350732 0.006929 0.108428 0.300000 0.600000 0.000000
0.284000 0.433724 0.055413 0.000000 0.500000 0.500000
-0.125892 0.177362 0.212079 0.300000 0.600000 0.000000
-0.588007 -0.402582 0.132590 0.000000 0.000000 1.000000
0.007338 0.433724 0.159021 0.000000 0.500000 0.500000
-0.626707 0.406440 0.330123 0.000000 0.500000 0.500000
0.122491 0.258860 -0.233555 0.600000 0.000000 0.300000
0.265491 0.274620 0.205258 0.300000 0.000000 0.600000
-0.382256 0.433724 -0.342459 0.000000 0.500000 0.500000
-0.409918 0.006929 -0.057428 0.300000 0.600000 0.000000
-0.192560 0.090859 0.212079 0.300000 0.600000 0.000000
0.567004 -0.275687 0.184813 0.800000 0.200000 0.500000
-0.669858 -0.345554 -0.227980 0.000000 1.000000 0.000000
-0.597101 0.145370 -0.145486 0.000000 0.000000 1.000000
-0.132546 -0.393882 -0.111782 1.000000 0.000000 0.000000
-0.087181 -0.052369 0.212079 0.300000 0.600000 0.000000
0.665718 0.433724 -0.036610 0.000000 0.500000 0.500000
0.512461 -0.412071 0.084282 1.000000 0.000000 0.000000
0.456479 0.406440 0.298773 0.000000 0.500000 0.500000
-0.578912 -0.048349 0.186183 0.000000 0.000000 1.000000
0.477301 -0.272699 -0.233555 0.600000 0.000000 0.300000
-0.254253 0.006929 -0.047441 0.300000 0.600000 0.000000
0.307271 -0.139579 -0.233555 0.600000 0.000000 0.300000
0.725911 -0.612152 -0.180373 0.000000 0.500000 0.500000
0.435419 0.043869 0.212079 0.300000 0.000000 0.600000
-0.272317 -0.412071 0.074358 1.000000 0.000000 0.000000
0.402891 -0.393882 0.111944 1.000000 0.000000 0.000000
0.134187 0.006929 0.109621 0.300000 0.600000 0.000000
0.284038 0.299070 0.212079 0.300000 0.000000 0.600000
0.530762 0.222307 0.193890 0.300000 0.000000 0.600000
-0.569780 0.347788 -0.242650 0.600000 0.000000 0.300000
0.393293 0.202893 0.200711 0.300000 0.000000 0.600000
0.183115 -0.393882 0.159706 1.000000 0.000000 0.000000
-0.201640 0.380149 0.212079 0.300000 0.600000 0.000000
0.403117 0.293807 0.212079 0.300000 0.000000 0.600000
-0.057116 0.405142 -0.150596 1.000000 0.000000 0.000000
0.703423 -0.150830 0.105128 0.300000 0.600000 0.000000
0.567004 0.240818 -0.210527 0.800000 0.200000 0.500000
-0.706236 -0.087009 0.018276 0.300000 0.000000 0.600000
0.026037 -0.352982 0.212079 0.300000 0.000000 0.600000
0.620743 0.433724 0.102951 0.000000 0.500000 0.500000
0.739801 0.182576 0.160774 0.500000 0.000000 0.500000
-0.264882 0.006929 -0.096300 0.300000 0.600000 0.000000
0.657950 -0.238533 -0.195890 0.000000 0.500000 0.500000
0.054638 -0.012559 -0.034591 0.300000 0.600000 0.000000
0.705862 0.433724 0.318926 0.000000 0.500000 0.500000
-0.012773 0.406440 -0.102599 0.000000 0.500000 0.500000
-0.152571 0.283503 0.193890 0.300000 0.600000 0.000000
-0.457402 0.433724 -0.007855 0.000000 0.500000 0.500000
0.567004 -0.091471 0.185539 0.800000 0.200000 0.500000
0.548815 0.029074 0.103466 0.800000 0.200000 0.500000
-0.597101 -0.134791 0.077790 0.000000 0.000000 1.000000
-0.714357 -0.172563 -0.238087 0.000000 1.000000 0.000000
-0.090478 -0.471186 0.168267 0.300000 0.000000 0.600000
-0.156403 -0.096323 0.200711 0.300000 0.600000 0.000000
0.739801 -0.097351 0.154969 0.500000 0.000000 0.500000
0.392869 -0.250801 -0.242650 0.600000 0.000000 0.300000
-0.766195 0.309657 0.222033 0.500000 0.500000 0.000000
-0.581186 -0.225877 0.177026 0.000000 0.000000 1.000000
0.486820 0.406440 0.010357 0.000000 0.500000 0.500000
-0.705375 -0.466639 0.182828 0.300000 0.000000 0.600000
0.351111 0.386953 -0.074021 1.000000 0.000000 0.000000
0.683929 0.211996 -0.156236 0.000000 0.500000 0.500000
-0.578912 -0.293212 0.195859 0.000000 0.000000 1.000000
-0.399107 -0.430570 0.189358 0.300000 0.000000 0.600000
0.353867 0.406440 0.197300 0.000000 0.500000 0.500000
0.204084 0.305321 0.200711 0.300000 0.000000 0.600000
-0.209283 -0.012559 0.097239 0.300000 0.600000 0.000000
-0.435795 -0.393882 -0.105762 1.000000 0.000000 0.000000
-0.507605 0.433724 0.198403 0.000000 0.500000 0.500000
-0.171757 0.392147 -0.242650 0.600000 0.000000 0.300000
0.645713 -0.199502 0.225736 0.500000 0.000000 0.500000
-0.273055 -0.393882 -0.098090 1.000000 0.000000 0.000000
-0.692948 -0.154464 -0.238087 0.000000 1.000000 0.000000
0.567004 0.037268 0.066851 0.800000 0.200000 0.500000
0.692618 0.167093 0.225736 0.500000 0.000000 0.500000
0.524097 0.276041 0.193890 0.300000 0.000000 0.600000
0.677893 0.324589 -0.111308 0.000000 0.500000 0.500000
0.148126 0.296230 -0.233555 0.600000 0.000000 0.300000
0.373948 -0.385201 0.193890 0.300000 0.000000 0.600000
-0.323537 0.386953 -0.219561 1.000000 0.000000 0.000000
0.142889 -0.334118 0.200711 0.300000 0.000000 0.600000
-0.170214 0.406440 0.311822 0.000000 0.500000 0.500000
-0.458639 0.406440 0.105969 0.000000 0.500000 0.500000
-0.758618 -0.235396 0.214456 0.500000 0.500000 0.000000
0.739801 -0.247512 -0.236037 0.000000 0.500000 0.500000
-0.288869 -0.012559 -0.008731 0.300000 0.600000 0.000000
-0.158196 0.016857 0.205258 0.300000 0.600000 0.000000
-0.733520 -0.241632 0.112003 0.600000 0.300000 0.000000
0.154891 0.120718 0.212079 0.300000 0.000000 0.600000
-0.878805 0.433724 -0.325350 0.000000 0.500000 0.500000
0.057114 -0.513741 0.162074 0.300000 0.000000 0.600000
-0.578912 -0.207091 -0.011548 0.000000 0.000000 1.000000
0.130841 -0.439355 -0.188093 1.000000 0.000000 0.000000
-0.176725 0.386953 0.193211 1.000000 0.000000 0.000000
0.602097 0.406440 0.286496 0.000000 0.500000 0.500000
0.034450 0.433724 -0.060177 0.000000 0.500000 0.500000
0.476059 -0.120682 0.210641 0.300000 0.000000 0.600000
-0.285998 0.433724 0.303344 0.000000 0.500000 0.500000
-0.185884 -0.471186 -0.197271 0.500000 0.000000 0.500000
0.721612 -0.125250 -0.214725 0.000000 0.500000 0.500000
-0.233885 -0.412071 -0.053490 1.000000 0.000000 0.000000
0.548815 0.230349 0.091143 0.800000 0.200000 0.500000
0.553415 -0.407399 -0.242650 0.800000 0.200000 0.500000
-0.001588 -0.393882 0.043580 1.000000 0.000000 0.000000
-0.751709 -0.170403 0.172466 0.500000 0.500000 0.000000
0.488948 -0.012559 0.134054 0.300000 0.600000 0.000000
0.435951 -0.274428 -0.233555 0.600000 0.000000 0.300000
0.481060 0.406440 0.233758 0.000000 0.500000 0.500000
0.693619 0.433724 0.270997 0.000000 0.500000 0.500000
-0.523156 0.406440 0.054369 0.000000 0.500000 0.500000
-0.156697 0.429717 0.225736 0.000000 0.500000 0.500000
-0.255633 -0.374808 0.193890 0.300000 0.600000 0.000000
-0.758497 -0.228360 -0.244875 0.000000 1.000000 0.000000
0.548815 0.281964 0.005180 0.800000 0.200000 0.500000
0.703423 -0.085361 -0.095837 0.300000 0.600000 0.000000
-0.523241 -0.412071 0.029112 1.000000 0.000000 0.000000
-0.155694 -0.393882 -0.191711 1.000000 0.000000 0.000000
-0.688047 -0.074925 -0.229164 0.000000 1.000000 0.000000
-0.374403 0.433724 0.217898 0.000000 0.500000 0.500000
0.287617 -0.012559 -0.132763 0.300000 0.600000 0.000000
0.339565 -0.381071 -0.242650 0.600000 0.000000 0.300000
-0.073389 0.406440 -0.037519 0.000000 0.500000 0.500000
-0.056147 0.433724 0.067974 0.000000 0.500000 0.500000
0.658771 -0.136459 0.143885 0.500000 0.000000 0.500000
0.684450 0.062334 -0.174425 0.000000 0.500000 0.500000
0.253546 -0.412071 -0.112648 1.000000 0.000000 0.000000
-0.146743 -0.150828 -0.242650 0.600000 0.000000 0.300000
0.673912 -0.394872 0.143885 0.500000 0.000000 0.500000
-0.059814 0.079842 0.212420 0.600000 0.000000 0.300000
-0.578912 0.219351 0.033165 0.000000 0.000000 1.000000
-0.267472 -0.323540 -0.242650 0.600000 0.000000 0.300000
-0.257326 0.368856 -0.233555 0.600000 0.000000 0.300000
-0.578912 -0.175006 0.105432 0.000000 0.000000 1.000000
-0.718081 0.218142 -0.156236 0.000000 1.000000 0.000000
0.717479 -0.507439 -0.256277 0.000000 0.500000 0.500000
-0.320308 0.032878 0.212079 0.300000 0.600000 0.000000
0.541506 -0.509915 -0.219898 0.500000 0.000000 0.500000
-0.573349 0.386953 -0.194325 1.000000 0.000000 0.000000
0.548815 -0.317874 -0.030173 0.800000 0.200000 0.500000
-0.250366 -0.439355 -0.062710 1.000000 0.000000 0.000000
0.721612 -0.415814 0.159450 0.500000 0.000000 0.500000
0.739801 -0.165703 0.198681 0.500000 0.000000 0.500000
-0.737860 0.406440 -0.124285 0.000000 0.500000 0.500000
0.695555 -0.184707 -0.126098 0.600000 0.000000 0.300000
0.698876 -0.122778 -0.248351 0.300000 0.600000 0.000000
-0.769898 0.391954 -0.220321 0.000000 1.000000 0.000000
0.017499 0.406440 0.164504 0.000000 0.500000 0.500000
0.549941 -0.059596 0.212079 0.800000 0.200000 0.500000
-0.296499 0.299835 0.212079 0.300000 0.600000 0.000000
0.755644 0.433724 -0.352293 0.000000 0.500000 0.500000
-0.361084 0.187512 -0.242650 0.600000 0.000000 0.300000
-0.033519 0.386953 -0.059194 1.000000 0.000000 0.000000
0.694798 -0.423514 0.225736 0.500000 0.000000 0.500000
0.142988 0.313391 0.193890 0.300000 0.000000 0.600000
-0.509900 -0.389656 0.205258 0.300000 0.600000 0.000000
-0.483305 0.210344 0.212079 0.300000 0.600000 0.000000
0.454901 -0.012559 -0.092742 0.300000 0.600000 0.000000
-0.722862 0.279116 -0.217682 0.600000 0.000000 0.300000
0.714276 -0.454343 0.225736 0.500000 0.000000 0.500000
0.631172 -0.507843 0.162074 0.300000 0.000000 0.600000
0.639761 -0.180027 0.150308 0.500000 0.000000 0.500000
0.562627 0.433724 0.109632 0.000000 0.500000 0.500000
-0.087805 0.289181 0.208955 0.300000 0.600000 0.000000
0.040414 -0.412071 0.009632 1.000000 0.000000 0.000000
-0.253416 0.099854 -0.242650 0.600000 0.000000 0.300000
-0.523010 -0.439355 0.007573 1.000000 0.000000 0.000000
0.739801 -0.083915 -0.201563 0.000000 0.500000 0.500000
-0.369697 0.386953 0.091079 1.000000 0.000000 0.000000
0.337116 0.433724 0.053290 0.000000 0.500000 0.500000
-0.392796 -0.412071 0.086399 1.000000 0.000000 0.000000
0.531639 -0.345353 0.193890 0.300000 0.000000 0.600000
0.477457 0.406440 0.034538 0.000000 0.500000 0.500000
-0.093257 0.406440 -0.102805 0.000000 0.500000 0.500000
-0.463707 -0.256347 0.193890 0.300000 0.600000 0.000000
0.524192 -0.412071 0.191108 1.000000 0.000000 0.000000
0.198642 0.205093 0.212079 0.300000 0.000000 0.600000
-0.205933 -0.439355 0.019899 1.000000 0.000000 0.000000
0.657950 0.233080 -0.182270 0.000000 0.500000 0.500000
-0.112650 0.259733 0.193890 0.300000 0.600000 0.000000
0.366477 0.433724 0.188166 0.000000 0.500000 0.500000
-0.746524 -0.146188 -0.256277 0.000000 1.000000 0.000000
0.205865 -0.069005 0.193890 0.300000 0.000000 0.600000
0.217031 -0.012559 0.043484 0.300000 0.600000 0.000000
-0.063061 -0.412071 -0.044934 1.000000 0.000000 0.000000
0.095275 0.283192 0.200711 0.300000 0.000000 0.600000
0.548815 0.133598 -0.223826 0.800000 0.200000 0.500000
-0.597101 -0.364882 0.150430 0.000000 0.000000 1.000000
0.634622 0.433724 0.213983 0.000000 0.500000 0.500000
0.145293 -0.412071 0.183222 1.000000 0.000000 0.000000
-0.134270 0.088721 0.212079 0.300000 0.600000 0.000000
-0.875651 0.433724 -0.249064 0.000000 0.500000 0.500000
0.659897 -0.071827 -0.256277 0.000000 0.500000 0.500000
-0.582712 0.406440 0.282763 0.000000 0.500000 0.500000
0.067920 0.323302 -0.233555 0.600000 0.000000 0.300000
0.480392 0.191768 0.205258 0.300000 0.000000 0.600000
-0.410335 -0.219092 -0.242650 0.600000 0.000000 0.300000
-0.309826 -0.149978 0.212079 0.300000 0.600000 0.000000
0.132114 -0.412071 -0.188347 1.000000 0.000000 0.000000
0.387743 -0.123408 0.212079 0.300000 0.000000 0.600000
-0.020113 -0.439355 -0.012896 1.000000 0.000000 0.000000
-0.133736 0.386953 0.125169 1.000000 0.000000 0.000000
-0.348695 0.405142 0.050612 1.000000 0.000000 0.000000
-0.579560 0.405142 -0.150374 0.000000 0.000000 1.000000
0.202581 -0.539395 -0.195779 0.500000 0.000000 0.500000
0.522267 -0.012559 0.055979 0.300000 0.600000 0.000000
0.430400 -0.012559 0.001163 0.300000 0.600000 0.000000
0.332301 -0.539395 -0.195061 0.500000 0.000000 0.500000
-0.278442 0.433724 0.334119 0.000000 0.500000 0.500000
-0.688047 -0.310006 -0.174494 0.000000 1.000000 0.000000
-0.669858 -0.212137 -0.182059 0.000000 1.000000 0.000000
-0.049730 -0.307114 0.212079 0.300000 0.600000 0.000000
-0.428146 0.410146 0.225736 0.000000 0.500000 0.500000
-0.769898 -0.454247 -0.217696 0.000000 1.000000 0.000000
0.464760 -0.018634 0.200711 0.300000 0.000000 0.600000
0.548815 -0.339953 0.119759 0.800000 0.200000 0.500000
-0.860419 0.407210 -0.346797 0.000000 0.500000 0.500000
0.725410 0.235593 0.140087 0.500000 0.000000 0.500000
-0.765228 -0.414070 -0.256277 0.000000 1.000000 0.000000
-0.479932 -0.012559 0.053015 0.300000 0.600000 0.000000
0.567004 0.167796 -0.201556 0.800000 0.200000 0.500000
-0.669858 -0.512803 0.190643 0.500000 0.500000 0.000000
0.153919 0.226575 0.212079 0.300000 0.000000 0.600000
-0.288944 0.386953 -0.092444 1.000000 0.000000 0.000000
0.480229 0.405142 -0.064893 1.000000 0.000000 0.000000
0.570420 0.406440 0.264419 0.000000 0.500000 0.500000
0.704239 -0.514778 -0.197162 0.500000 0.000000 0.500000
-0.437876 0.278171 -0.233555 0.600000 0.000000 0.300000
0.186473 -0.182755 0.212079 0.300000 0.000000 0.600000
0.538582 0.433724 0.249273 0.000000 0.500000 0.500000
-0.437295 0.006929 0.102898 0.300000 0.600000 0.000000
0.548815 -0.082298 -0.174851 0.800000 0.200000 0.500000
-0.670692 0.139207 0.126530 0.500000 0.500000 0.000000
0.343910 0.156598 -0.233555 0.600000 0.000000 0.300000
0.285128 0.406440 -0.078887 0.000000 0.500000 0.500000
-0.223572 -0.264363 0.193890 0.300000 0.600000 0.000000
-0.423650 0.386953 -0.093353 1.000000 0.000000 0.000000
-0.466824 0.433724 0.241913 0.000000 0.500000 0.500000
0.348096 -0.012559 -0.089345 0.300000 0.600000 0.000000
0.170990 -0.012559 0.109239 0.300000 0.600000 0.000000
0.666383 -0.489150 -0.238087 0.000000 0.500000 0.500000
0.481388 -0.393882 0.008241 1.000000 0.000000 0.000000
0.146221 -0.052848 0.200711 0.300000 0.000000 0.600000
0.299455 -0.412071 0.023547 1.000000 0.000000 0.000000
-0.331395 -0.200994 0.200711 0.300000 0.600000 0.000000
-0.879033 0.411418 0.210673 0.000000 0.500000 0.500000
-0.130550 -0.412071 -0.044528 1.000000 0.000000 0.000000
-0.578912 0.137064 -0.025727 0.000000 0.000000 1.000000
-0.632285 0.406440 0.212294 0.000000 0.500000 0.500000
-0.074930 0.386953 0.015014 1.000000 0.000000 0.000000
-0.669858 -0.339599 0.197641 0.500000 0.500000 0.000000
-0.879033 0.410076 -0.205968 0.000000 0.500000 0.500000
0.679215 -0.514498 0.184810 0.300000 0.000000 0.600000
0.431703 -0.034333 0.193890 0.300000 0.000000 0.600000
-0.184494 0.006929 -0.175753 0.300000 0.600000 0.000000
-0.177706 -0.412071 0.184413 1.000000 0.000000 0.000000
-0.769898 0.071062 -0.180671 0.000000 1.000000 0.000000
-0.669858 -0.087397 0.161244 0.500000 0.500000 0.000000
-0.695539 0.173981 0.143885 0.500000 0.500000 0.000000
-0.642796 0.433724 0.201592 0.000000 0.500000 0.500000
-0.151486 0.406440 -0.104441 0.000000 0.500000 0.500000
0.584996 -0.412071 0.095025 1.000000 0.000000 0.000000
-0.706236 -0.165150 -0.155926 0.300000 0.000000 0.600000
-0.735649 0.087178 -0.156236 0.000000 1.000000 0.000000
0.332968 0.419345 0.225736 0.000000 0.500000 0.500000
-0.565848 0.319271 0.212079 0.300000 0.600000 0.000000
-0.363979 0.324687 0.193890 0.300000 0.600000 0.000000
-0.527753 -0.012559 -0.156355 0.300000 0.600000 0.000000
0.280240 0.103485 -0.242650 0.600000 0.000000 0.300000
-0.386157 -0.010617 0.193890 0.300000 0.600000 0.000000
0.458149 -0.412071 0.175146 1.000000 0.000000 0.000000
-0.588007 0.391342 0.047641 1.000000 0.000000 0.000000
0.703423 0.306867 -0.083747 0.000000 0.500000 0.500000
0.596980 -0.539395 0.165494 0.300000 0.000000 0.600000
-0.686966 -0.594067 -0.173344 0.000000 1.000000 0.000000
0.102374 0.406440 -0.079590 0.000000 0.500000 0.500000
0.703423 -0.249079 -0.127212 0.600000 0.000000 0.300000
-0.123190 -0.206660 0.205258 0.300000 0.600000 0.000000
0.141849 -0.012559 -0.213003 0.300000 0.600000 0.000000
-0.164772 -0.012559 -0.008143 0.300000 0.600000 0.000000
-0.769898 0.000387 -0.191122 0.000000 1.000000 0.000000
-0.609124 0.406440 -0.151677 0.000000 0.500000 0.500000
-0.117459 0.386953 0.181569 1.000000 0.000000 0.000000
0.280144 0.433724 0.235190 0.000000 0.500000 0.500000
0.183352 0.297273 -0.233555 0.600000 0.000000 0.300000
-0.344717 -0.393882 -0.140508 1.000000 0.000000 0.000000
0.517502 -0.012559 -0.026505 0.300000 0.600000 0.000000
0.144450 -0.393882 -0.030703 1.000000 0.000000 0.000000
-0.296346 -0.471186 0.170349 0.300000 0.000000 0.600000
0.154383 -0.272965 0.193890 0.300000 0.000000 0.600000
-0.050233 0.386953 0.038792 1.000000 0.000000 0.000000
0.567004 -0.293447 0.099537 0.800000 0.200000 0.500000
-0.751709 -0.351930 0.192616 0.500000 0.500000 0.000000
0.749818 0.406440 0.234639 0.000000 0.500000 0.500000
0.271288 0.406440 -0.318765 0.000000 0.500000 0.500000
-0.407772 -0.393882 -0.012785 1.000000 0.000000 0.000000
0.739801 -0.484977 0.173021 0.300000 0.000000 0.600000
-0.710784 -0.083587 -0.182478 0.300000 0.000000 0.600000
-0.387160 0.006929 -0.028903 0.300000 0.600000 0.000000
0.042395 -0.393882 -0.015052 1.000000 0.000000 0.000000
0.633821 0.433724 -0.033651 0.000000 0.500000 0.500000
0.325945 0.006929 -0.142960 0.300000 0.600000 0.000000
0.071979 0.006929 -0.181711 0.300000 0.600000 0.000000
0.035514 -0.522532 -0.219898 0.500000 0.000000 0.500000
-0.555751 0.399902 0.212079 1.000000 0.000000 0.000000
0.739801 -0.456939 -0.253520 0.000000 0.500000 0.500000
0.066320 -0.106438 0.212079 0.300000 0.000000 0.600000
-0.036057 -0.412071 -0.219864 1.000000 0.000000 0.000000
-0.328660 0.406440 -0.275620 0.000000 0.500000 0.500000
-0.690056 -0.137059 0.225736 0.500000 0.500000 0.000000
-0.578912 -0.377117 -0.039265 0.000000 0.000000 1.000000
0.848936 0.411468 -0.055563 0.000000 0.500000 0.500000
0.365928 -0.066206 -0.242650 0.600000 0.000000 0.300000
0.069109 -0.074259 -0.233555 0.600000 0.000000 0.300000
-0.618722 0.406440 0.002501 0.000000 0.500000 0.500000
0.324562 0.386953 -0.208494 1.000000 0.000000 0.000000
-0.597101 0.332413 -0.182409 0.000000 0.000000 1.000000
0.417624 0.005814 0.166606 0.300000 0.600000 0.000000
-0.578912 -0.121231 0.058520 0.000000 0.000000 1.000000
-0.879032 0.433724 0.027057 0.000000 0.500000 0.500000
-0.015198 0.433724 -0.063177 0.000000 0.500000 0.500000
0.003373 0.269628 0.193890 0.300000 0.000000 0.600000
0.206908 -0.253076 -0.242650 0.600000 0.000000 0.300000
-0.410778 0.405142 -0.188694 1.000000 0.000000 0.000000
0.007027 -0.412071 -0.104172 1.000000 0.000000 0.000000
-0.115794 0.026780 -0.242650 0.600000 0.000000 0.300000
0.384518 0.406440 0.266998 0.000000 0.500000 0.500000
-0.342957 0.405142 0.011627 1.000000 0.000000 0.000000
0.739801 -0.065051 0.161660 0.500000 0.000000 0.500000
0.123313 -0.498470 0.186148 0.300000 0.000000 0.600000
-0.418006 -0.031740 -0.242650 0.600000 0.000000 0.300000
-0.597101 0.147058 0.201009 0.000000 0.000000 1.000000
0.642360 -0.226079 0.125696 0.500000 0.000000 0.500000
-0.232634 0.386953 0.179719 1.000000 0.000000 0.000000
-0.332131 0.406440 0.159211 0.000000 0.500000 0.500000
0.001216 0.012555 -0.242650 0.600000 0.000000 0.300000
-0.546721 -0.439355 -0.236198 1.000000 0.000000 0.000000
0.242937 -0.435998 0.162074 0.300000 0.000000 0.600000
-0.669858 -0.082510 -0.188266 0.000000 1.000000 0.000000
-0.473380 0.240350 0.200711 0.300000 0.600000 0.000000
0.739801 -0.390518 0.194258 0.500000 0.000000 0.500000
0.480383 0.384073 -0.242650 0.600000 0.000000 0.300000
-0.015049 -0.044900 0.200660 0.300000 0.600000 0.000000
-0.045139 0.229722 0.193890 0.300000 0.600000 0.000000
0.525525 0.347007 0.193890 0.300000 0.000000 0.600000
0.720094 -0.588975 0.225736 0.500000 0.000000 0.500000
-0.040534 0.405142 0.152549 1.000000 0.000000 0.000000
-0.392662 -0.471186 -0.199658 0.500000 0.000000 0.500000
0.548815 0.026832 0.018517 0.800000 0.200000 0.500000
0.182414 0.006929 -0.033706 0.300000 0.600000 0.000000
0.657950 -0.155685 -0.209829 0.000000 0.500000 0.500000
0.657950 0.253882 0.177177 0.500000 0.000000 0.500000
-0.404104 0.433724 -0.064425 0.000000 0.500000 0.500000
0.135515 0.433724 0.080032 0.000000 0.500000 0.500000
-0.330264 -0.393882 -0.008469 1.000000 0.000000 0.000000
-0.575932 0.006929 -0.201985 0.300000 0.600000 0.000000
0.639761 -0.164865 -0.193979 0.000000 0.500000 0.500000
0.554841 -0.029776 -0.233555 0.600000 0.000000 0.300000
0.493962 -0.193211 -0.242650 0.600000 0.000000 0.300000
0.824001 0.406440 -0.228095 0.000000 0.500000 0.500000
0.548815 0.161443 -0.131867 0.800000 0.200000 0.500000
0.250309 0.386953 0.030781 1.000000 0.000000 0.000000
-0.578912 -0.131606 0.033841 0.000000 0.000000 1.000000
-0.597101 -0.219776 0.121009 0.000000 0.000000 1.000000
-0.669858 -0.037168 0.168027 0.500000 0.500000 0.000000
-0.446272 0.361387 -0.242650 0.600000 0.000000 0.300000
0.680470 -0.030099 -0.097212 0.300000 0.600000 0.000000
-0.103717 -0.090381 0.200711 0.300000 0.600000 0.000000
-0.245855 0.006929 0.036836 0.300000 0.600000 0.000000
0.359440 -0.439355 0.151733 1.000000 0.000000 0.000000
-0.313173 0.433724 -0.085252 0.000000 0.500000 0.500000
-0.032712 0.433724 0.034040 0.000000 0.500000 0.500000
0.417855 0.433724 0.152783 0.000000 0.500000 0.500000
0.390593 -0.463954 0.189358 0.300000 0.000000 0.600000
0.847778 0.406440 -0.309459 0.000000 0.500000 0.500000
-0.171721 0.111210 -0.242650 0.600000 0.000000 0.300000
-0.477129 -0.399400 -0.233555 1.000000 0.000000 0.000000
0.160995 -0.439355 0.129373 1.000000 0.000000 0.000000
0.391139 0.038174 0.212079 0.300000 0.000000 0.600000
-0.447642 -0.412071 -0.165629 1.000000 0.000000 0.000000
-0.023952 -0.412071 0.148714 1.000000 0.000000 0.000000
0.534169 -0.412071 -0.146039 1.000000 0.000000 0.000000
-0.597101 0.263300 -0.054893 0.000000 0.000000 1.000000
-0.015049 -0.155655 0.195891 0.300000 0.600000 0.000000
-0.530806 0.006929 0.144003 0.300000 0.600000 0.000000
-0.681341 0.075970 -0.244793 0.000000 1.000000 0.000000
0.061239 0.386953 0.150180 1.000000 0.000000 0.000000
0.691936 0.088880 -0.256277 0.000000 0.500000 0.500000
-0.468476 0.175582 0.205258 0.300000 0.600000 0.000000
0.105066 -0.412071 -0.066005 1.000000 0.000000 0.000000
0.166741 0.406440 0.048505 0.000000 0.500000 0.500000
0.033549 -0.439355 0.033021 1.000000 0.000000 0.000000
-0.758667 -0.319895 -0.156236 0.000000 1.000000 0.000000
0.168355 -0.373606 0.193890 0.300000 0.000000 0.600000
-0.485222 0.118755 0.205258 0.300000 0.600000 0.000000
0.365224 -0.209374 -0.242650 0.600000 0.000000 0.300000
0.472295 -0.353146 0.212079 0.300000 0.000000 0.600000
0.150765 -0.412071 0.116118 1.000000 0.000000 0.000000
-0.578912 -0.013353 -0.089153 0.000000 0.000000 1.000000
0.567004 0.156642 0.056177 0.800000 0.200000 0.500000
0.218360 -0.449369 -0.192615 0.500000 0.000000 0.500000
0.548815 -0.109495 -0.006736 0.800000 0.200000 0.500000
0.721612 -0.232913 0.184089 0.500000 0.000000 0.500000
-0.201092 -0.393882 -0.026289 1.000000 0.000000 0.000000
0.657950 0.319089 -0.178895 0.000000 0.500000 0.500000
-0.340611 0.088051 0.200711 0.300000 0.600000 0.000000
0.158082 -0.351151 0.212079 0.300000 0.000000 0.600000
-0.578642 -0.119089 -0.233555 0.600000 0.000000 0.300000
0.639761 -0.004037 -0.197239 0.000000 0.500000 0.500000
0.665592 -0.219529 -0.156236 0.000000 0.500000 0.500000
-0.652094 0.433724 -0.254449 0.000000 0.500000 0.500000
-0.123474 -0.373072 -0.242650 0.600000 0.000000 0.300000
-0.767777 0.106094 -0.158357 0.000000 1.000000 0.000000
0.739801 0.098334 -0.180109 0.000000 0.500000 0.500000
-0.718894 -0.148329 0.211841 0.300000 0.000000 0.600000
-0.355473 -0.412071 -0.057499 1.000000 0.000000 0.000000
0.686857 -0.355489 0.125696 0.500000 0.000000 0.500000
-0.161377 -0.452000 -0.219898 0.500000 0.000000 0.500000
-0.033911 0.048788 0.193890 0.300000 0.600000 0.000000
0.704096 -0.572631 -0.256277 0.000000 0.500000 0.500000
0.567004 0.139305 0.109580 0.800000 0.200000 0.500000
-0.203699 -0.156298 0.200711 0.300000 0.600000 0.000000
-0.559776 -0.304358 0.212079 0.300000 0.600000 0.000000
-0.597101 0.298531 -0.178324 0.000000 0.000000 1.000000
0.571528 -0.452086 0.189358 0.300000 0.000000 0.600000
-0.857072 0.406440 -0.288820 0.000000 0.500000 0.500000
0.118157 0.433724 -0.278399 0.000000 0.500000 0.500000
-0.545355 0.259260 -0.242650 0.600000 0.000000 0.300000
0.495008 0.187181 -0.242650 0.600000 0.000000 0.300000
-0.597101 0.342971 -0.224571 0.000000 0.000000 1.000000
0.347371 -0.218564 0.200711 0.300000 0.000000 0.600000
0.548815 -0.065227 0.075411 0.800000 0.200000 0.500000
0.548815 0.229452 -0.155519 0.800000 0.200000 0.500000
0.565097 0.406440 -0.042871 0.000000 0.500000 0.500000
0.026351 0.006929 0.069245 0.300000 0.600000 0.000000
-0.459321 -0.012559 -0.122820 0.300000 0.600000 0.000000
-0.277595 0.406440 0.246281 0.000000 0.500000 0.500000
-0.368112 -0.439355 -0.186576 1.000000 0.000000 0.000000
0.657935 -0.106115 0.143870 0.500000 0.000000 0.500000
0.523462 0.406440 0.198155 0.000000 0.500000 0.500000
-0.610397 -0.412071 0.084006 1.000000 0.000000 0.000000
-0.294187 -0.412071 0.162554 1.000000 0.000000 0.000000
0.263632 0.325915 0.212079 0.300000 0.000000 0.600000
0.480452 -0.268451 0.212079 0.300000 0.000000 0.600000
0.568925 -0.439355 -0.078159 1.000000 0.000000 0.000000
0.379341 -0.439355 0.036753 1.000000 0.000000 0.000000
0.301779 -0.012559 -0.219250 0.300000 0.600000 0.000000
0.313476 0.406440 0.250905 0.000000 0.500000 0.500000
0.399116 0.431906 0.225736 0.000000 0.500000 0.500000
0.115799 0.150932 0.212079 0.300000 0.000000 0.600000
-0.856247 0.433724 -0.269821 0.000000 0.500000 0.500000
-0.152338 -0.520724 0.162074 0.300000 0.000000 0.600000
-0.578912 -0.077516 -0.014589 0.000000 0.000000 1.000000
-0.086729 0.426072 -0.256276 0.000000 0.500000 0.500000
-0.161156 0.006929 -0.097110 0.300000 0.600000 0.000000
0.190385 -0.439355 0.038538 1.000000 0.000000 0.000000
0.548815 -0.013253 -0.071410 0.800000 0.200000 0.500000
0.012064 -0.268594 -0.233555 0.600000 0.000000 0.300000
0.007663 0.386953 -0.173780 1.000000 0.000000 0.000000
-0.350655 -0.393882 0.185564 1.000000 0.000000 0.000000
0.468992 0.295234 0.193890 0.300000 0.000000 0.600000
-0.728973 0.291842 0.129398 0.500000 0.500000 0.000000
-0.201388 0.433724 -0.300428 0.000000 0.500000 0.500000
-0.699967 -0.354051 0.207547 0.500000 0.500000 0.000000
0.786641 0.433724 0.236736 0.000000 0.500000 0.500000
0.386147 -0.145916 -0.233555 0.600000 0.000000 0.300000
0.087012 -0.012559 0.037679 0.300000 0.600000 0.000000
-0.200928 -0.439355 -0.020785 1.000000 0.000000 0.000000
-0.262746 0.189094 0.212079 0.300000 0.600000 0.000000
-0.597101 -0.279757 0.138343 0.000000 0.000000 1.000000
0.548815 -0.117691 0.034662 0.800000 0.200000 0.500000
-0.299192 0.326932 -0.233555 0.600000 0.000000 0.300000
0.021880 0.433724 0.010870 0.000000 0.500000 0.500000
-0.501539 0.386953 0.179003 1.000000 0.000000 0.000000
0.684746 -0.112092 0.072208 0.300000 0.600000 0.000000
-0.673229 0.362486 0.222365 0.500000 0.500000 0.000000
0.496984 0.405142 0.209030 1.000000 0.000000 0.000000
-0.414231 -0.066390 0.193890 0.300000 0.600000 0.000000
-0.628098 -0.412071 -0.012629 1.000000 0.000000 0.000000
-0.751709 -0.543601 0.179878 0.500000 0.500000 0.000000
-0.425899 -0.471186 -0.217953 0.500000 0.000000 0.500000
0.548815 0.262813 -0.095578 0.800000 0.200000 0.500000
-0.715125 0.433724 0.039273 0.000000 0.500000 0.500000
0.739801 -0.525971 0.161664 0.500000 0.000000 0.500000
0.522778 0.406440 -0.056180 0.000000 0.500000 0.500000
0.101711 0.386953 0.117058 1.000000 0.000000 0.000000
-0.736839 -0.604542 0.143885 0.500000 0.500000 0.000000
-0.111099 0.040029 0.193890 0.300000 0.600000 0.000000
0.721612 0.296444 -0.194812 0.000000 0.500000 0.500000
-0.659204 0.406440 0.125909 0.000000 0.500000 0.500000
0.087604 -0.175449 0.200711 0.300000 0.000000 0.600000
0.249838 0.406440 0.272106 0.000000 0.500000 0.500000
-0.126251 0.006929 0.125643 0.300000 0.600000 0.000000
-0.480917 -0.499470 0.162074 0.300000 0.000000 0.600000
-0.229771 -0.412071 0.109383 1.000000 0.000000 0.000000
0.327550 0.237826 0.193890 0.300000 0.000000 0.600000
0.271274 0.386953 0.185714 1.000000 0.000000 0.000000
0.655400 0.368145 0.210097 0.500000 0.000000 0.500000
0.038118 -0.016991 0.212079 0.300000 0.000000 0.600000
-0.155348 0.353284 0.193890 0.300000 0.600000 0.000000
-0.367057 -0.439355 0.069282 1.000000 0.000000 0.000000
0.312559 -0.412071 0.105619 1.000000 0.000000 0.000000
-0.061605 -0.246364 -0.242650 0.600000 0.000000 0.300000
-0.436369 0.258076 0.205258 0.300000 0.600000 0.000000
-0.487776 0.386953 -0.206595 1.000000 0.000000 0.000000
-0.578912 -0.260585 0.099960 0.000000 0.000000 1.000000
0.335300 0.374301 -0.242650 0.600000 0.000000 0.300000
-0.698903 -0.264219 0.225736 0.500000 0.500000 0.000000
-0.299080 0.405142 -0.077997 1.000000 0.000000 0.000000
-0.597101 -0.163906 -0.066337 0.000000 0.000000 1.000000
-0.244333 -0.012559 -0.213969 0.300000 0.600000 0.000000
0.159684 0.386953 -0.115613 1.000000 0.000000 0.000000
-0.252516 0.163253 -0.233555 0.600000 0.000000 0.300000
0.439764 -0.170865 -0.242650 0.600000 0.000000 0.300000
-0.087014 -0.412071 -0.224486 1.000000 0.000000 0.000000
0.596239 0.406440 -0.272878 0.000000 0.500000 0.500000
0.676139 -0.195549 -0.082466 0.600000 0.000000 0.300000
0.367041 0.326364 -0.233555 0.600000 0.000000 0.300000
0.549531 0.406440 -0.323148 0.000000 0.500000 0.500000
-0.688047 0.354383 0.180430 0.500000 0.500000 0.000000
0.548815 0.358528 0.132032 0.800000 0.200000 0.500000
0.657950 0.021131 -0.222346 0.000000 0.500000 0.500000
0.136478 0.084055 -0.242650 0.600000 0.000000 0.300000
-0.126788 -0.012559 -0.103087 0.300000 0.600000 0.000000
0.692108 -0.093761 -0.164979 0.000000 0.500000 0.500000
0.106828 0.406440 0.031623 0.000000 0.500000 0.500000
0.028729 0.405142 -0.233622 1.000000 0.000000 0.000000
-0.489451 -0.412071 0.018241 1.000000 0.000000 0.000000
0.232126 0.433724 0.234464 0.000000 0.500000 0.500000
0.787039 0.433724 0.273108 0.000000 0.500000 0.500000
0.122481 -0.412071 -0.214031 1.000000 0.000000 0.000000
-0.706236 0.245964 0.035236 0.600000 0.000000 0.300000
-0.417333 0.276408 0.193890 0.300000 0.600000 0.000000
0.350771 -0.258121 -0.233555 0.600000 0.000000 0.300000
-0.294777 0.405142 0.160710 1.000000 0.000000 0.000000
0.499787 -0.412071 0.010558 1.000000 0.000000 0.000000
-0.247792 -0.412071 0.159333 1.000000 0.000000 0.000000
-0.547155 -0.012559 0.071340 0.300000 0.600000 0.000000
0.063337 -0.276093 0.205258 0.300000 0.000000 0.600000
-0.193749 -0.268452 0.212079 0.300000 0.600000 0.000000
-0.382309 0.006929 -0.100836 0.300000 0.600000 0.000000
-0.578912 0.241176 -0.066586 0.000000 0.000000 1.000000
-0.597101 -0.234295 -0.022349 0.000000 0.000000 1.000000
-0.356393 0.406440 0.307766 0.000000 0.500000 0.500000
0.426133 -0.139979 0.193890 0.300000 0.000000 0.600000
0.185648 0.405142 -0.209369 1.000000 0.000000 0.000000
0.492272 -0.530992 0.162074 0.300000 0.000000 0.600000
0.073412 0.257320 0.212079 0.300000 0.000000 0.600000
-0.578912 -0.274169 0.057395 0.000000 0.000000 1.000000
0.548815 0.164851 0.011306 0.800000 0.200000 0.500000
-0.751709 -0.170258 -0.235271 0.000000 1.000000 0.000000
0.739801 -0.289385 0.157672 0.500000 0.000000 0.500000
-0.032613 0.405142 -0.209800 1.000000 0.000000 0.000000
0.056076 0.406440 -0.051943 0.000000 0.500000 0.500000
0.348951 0.406440 -0.004076 0.000000 0.500000 0.500000
-0.392856 0.433724 -0.022285 0.000000 0.500000 0.500000
0.639810 -0.165036 -0.156285 0.000000 0.500000 0.500000
-0.597101 -0.114609 0.193548 0.000000 0.000000 1.000000
-0.153574 0.433724 -0.067352 0.000000 0.500000 0.500000
-0.296579 0.386953 -0.216901 1.000000 0.000000 0.000000
-0.709345 0.324589 -0.140309 0.600000 0.000000 0.300000
0.668702 0.247355 -0.156236 0.000000 0.500000 0.500000
-0.615354 0.406440 -0.214508 0.000000 0.500000 0.500000
0.090118 -0.450678 0.162074 0.300000 0.000000 0.600000
-0.433223 0.433724 0.291274 0.000000 0.500000 0.500000
-0.003355 -0.012559 0.066647 0.300000 0.600000 0.000000
-0.424912 0.433724 -0.163049 0.000000 0.500000 0.500000
-0.492458 -0.084155 -0.233555 0.600000 0.000000 0.300000
0.283772 -0.412071 -0.079950 1.000000 0.000000 0.000000
-0.718485 0.324589 0.073706 0.600000 0.000000 0.300000
0.077858 0.406440 -0.025184 0.000000 0.500000 0.500000
-0.689899 0.406440 -0.142937 0.000000 0.500000 0.500000
