ply
format ascii 1.0
element vertex 1270
property float x
property float y
property float z
property uchar red
property uchar green
property uchar blue
end_header
-0.713804 -0.048288 -0.197466 76 0 153
0.336451 0.006929 -0.104830 76 153 0
-0.298173 -0.498470 0.182825 76 0 153
-0.557086 0.006929 -0.015943 0 0 255
-0.746461 0.406440 0.099553 0 127 127
0.671612 -0.143052 0.225736 127 0 127
0.496865 -0.072132 0.212079 76 0 153
-0.688047 -0.231527 0.167413 127 127 0
0.689203 -0.466174 -0.238087 0 127 127
-0.251732 -0.134136 -0.242650 153 0 76
-0.241906 -0.234864 0.193890 76 153 0
0.024220 -0.412071 -0.132764 255 0 0
0.143713 -0.439355 -0.013642 255 0 0
-0.636936 0.433724 -0.363678 0 127 127
-0.310136 -0.412071 0.200706 255 0 0
0.009796 0.406440 -0.036555 255 0 0
-0.510470 0.433724 -0.208633 0 127 127
0.656401 -0.188399 -0.239636 0 127 127
-0.688047 0.365150 0.185059 127 127 0
-0.751709 -0.367441 -0.207795 0 255 0
-0.563310 0.433724 0.194332 0 127 127
-0.310330 -0.272836 0.193890 76 153 0
-0.229099 -0.047282 -0.242650 153 0 76
-0.308130 -0.304059 -0.242650 153 0 76
-0.062435 0.023432 0.212079 76 153 0
-0.192909 0.228768 0.193890 76 153 0
0.438573 -0.012559 0.093811 76 153 0
-0.597101 -0.284853 -0.236908 153 0 76
0.472872 0.368785 -0.242650 153 0 76
0.402278 0.406440 0.285197 0 127 127
-0.740966 -0.612152 -0.242674 0 255 0
-0.448801 0.405142 0.190125 255 0 0
0.728036 -0.434893 0.225736 127 0 127
0.316328 -0.265428 -0.242650 153 0 76
0.002939 0.433724 0.310448 0 127 127
-0.474597 -0.108025 0.212079 76 153 0
-0.347016 -0.102563 0.193890 76 153 0
-0.341440 0.074154 0.193890 76 153 0
-0.294395 -0.412071 0.136568 255 0 0
0.232097 0.405142 0.022253 0 127 127
0.341220 0.406440 -0.156897 0 127 127
0.567004 0.329574 -0.063049 204 51 127
-0.402548 0.308999 0.211489 76 153 0
0.661748 0.216293 -0.238087 0 127 127
0.225757 -0.393882 -0.132141 255 0 0
0.728273 0.047818 -0.167764 0 127 127
-0.578912 -0.250935 -0.115252 0 0 255
-0.126175 0.433724 0.033894 0 127 127
-0.578912 -0.155830 -0.168035 0 0 255
-0.035106 -0.030940 -0.233555 153 0 76
-0.174209 -0.297762 0.212079 76 153 0
0.266508 0.293328 -0.233555 153 0 76
0.104611 0.405142 -0.027719 255 0 0
-0.193842 -0.412071 -0.097121 255 0 0
0.678521 0.433724 0.264228 0 127 127
0.676139 -0.110491 -0.079968 76 153 0
-0.516421 0.006929 -0.155111 76 153 0
0.728884 0.433724 -0.154019 0 127 127
0.709157 -0.174402 0.125696 127 0 127
-0.597101 -0.181378 0.209553 0 0 255
-0.709984 0.012748 0.125696 127 127 0
0.323851 -0.012559 -0.034544 76 153 0
0.502834 -0.164531 -0.233555 153 0 76
0.454948 -0.412071 0.093233 255 0 0
-0.597101 0.315361 -0.211991 0 0 255
0.639761 -0.421473 0.162037 127 0 127
0.319945 -0.524586 0.162074 76 0 153
-0.769898 -0.191854 -0.217986 0 255 0
-0.458565 0.006929 -0.094306 76 153 0
0.507156 -0.012559 0.025941 76 153 0
0.207002 0.311736 -0.233555 153 0 76
-0.638580 -0.451971 0.189358 76 0 153
-0.023048 0.386952 0.158627 255 0 0
-0.733520 -0.201817 0.101397 153 76 0
0.312411 0.406440 0.158499 255 0 0
0.721612 -0.409164 0.203629 127 0 127
-0.125939 -0.444865 -0.219898 127 0 127
0.468119 -0.539395 0.165993 76 0 153
0.639761 0.069869 0.224206 127 0 127
0.507852 -0.439355 -0.171025 127 0 127
0.840279 0.433724 0.038443 0 127 127
-0.033325 0.433724 0.300649 0 127 127
-0.485451 -0.215972 0.212079 76 153 0
0.602741 -0.439355 -0.062931 255 0 0
0.416234 -0.280075 0.193890 76 0 153
-0.216092 0.433724 -0.326165 0 127 127
-0.343527 -0.243624 -0.233555 153 0 76
0.429663 0.006929 0.003399 76 153 0
-0.805138 0.406440 -0.364522 0 127 127
0.565508 0.293560 0.212079 204 51 127
-0.421400 0.433724 0.107067 0 127 127
-0.524636 -0.439355 -0.113013 255 0 0
-0.712234 0.406440 0.051375 0 127 127
-0.751709 -0.413519 -0.187467 0 255 0
-0.578912 0.130657 0.187302 0 0 255
0.011847 0.006929 -0.180898 76 153 0
0.239493 0.433724 -0.317114 0 127 127
0.419472 0.433724 -0.057816 0 127 127
0.181097 0.006929 0.150241 76 153 0
0.739801 -0.440103 -0.213534 0 127 127
-0.138513 0.433724 -0.170168 0 127 127
-0.276231 0.433724 0.252903 0 127 127
0.170504 0.009531 0.193890 76 0 153
-0.596094 0.007832 -0.242650 0 0 255
-0.406905 0.433724 -0.174871 0 127 127
0.241272 0.006929 -0.090156 76 153 0
-0.324810 0.063241 -0.233555 153 0 76
0.567004 0.173459 -0.033823 204 51 127
-0.712225 0.242200 -0.174425 0 255 0
-0.381586 -0.460003 0.189358 76 0 153
-0.578912 -0.191285 -0.211561 0 0 255
0.081653 -0.321151 -0.242650 153 0 76
0.430817 0.134871 0.212079 76 0 153
-0.733520 0.313187 -0.099861 153 0 76
0.169459 -0.068820 -0.242650 153 0 76
0.567004 -0.118198 -0.168949 204 51 127
0.721612 0.059511 0.155036 127 0 127
0.251522 -0.393882 -0.022655 255 0 0
-0.566406 -0.012559 -0.154900 0 0 255
-0.733520 -0.240633 0.020969 153 76 0
-0.482269 0.080516 -0.233555 153 0 76
-0.597101 -0.188893 -0.037076 0 0 255
-0.762501 -0.267222 -0.256277 0 255 0
-0.072659 -0.506068 -0.192614 127 0 127
-0.751619 -0.447557 -0.197162 0 255 0
0.199814 -0.024955 0.193890 76 0 153
-0.405579 0.243977 0.200711 76 153 0
0.129455 0.433724 -0.013235 0 127 127
-0.578912 0.199847 0.135569 0 0 255
0.394123 0.406440 -0.083726 255 0 0
-0.733794 -0.490408 0.125696 127 127 0
0.739801 0.323562 0.195560 127 0 127
0.379613 0.433724 -0.191422 0 127 127
0.056164 -0.412071 -0.027272 255 0 0
-0.728973 -0.117037 0.157435 76 0 153
-0.028170 -0.012559 0.073070 76 153 0
0.362421 0.028013 -0.233555 153 0 76
0.739801 0.269991 -0.255382 0 127 127
-0.597101 -0.161040 -0.106058 0 0 255
0.177353 0.409123 -0.365411 0 127 127
0.144397 -0.423338 -0.247182 255 0 0
-0.163740 0.248455 0.200711 76 153 0
-0.035706 -0.336055 0.193890 76 153 0
0.739801 -0.232254 -0.217494 0 127 127
-0.243401 0.006929 -0.074961 76 153 0
0.381941 0.111150 0.212079 76 0 153
0.567004 -0.045504 0.188046 204 51 127
-0.669858 -0.047902 -0.226822 0 255 0
-0.279289 0.326438 -0.242650 153 0 76
-0.564647 -0.412071 0.104483 255 0 0
0.166036 0.233790 -0.242650 153 0 76
-0.181428 0.433724 0.217302 0 127 127
-0.120752 0.183281 -0.233555 153 0 76
-0.605693 0.408743 -0.256277 0 127 127
-0.751709 -0.349282 0.149754 127 127 0
0.277643 0.376353 -0.233555 153 0 76
0.341449 0.405142 -0.082335 0 127 127
-0.484980 -0.256301 0.212079 76 153 0
-0.225293 -0.439355 0.072328 255 0 0
0.715127 -0.279813 0.225736 127 0 127
0.007915 0.179086 -0.242650 153 0 76
0.703631 -0.374502 -0.256277 0 127 127
0.716402 -0.471133 0.143885 127 0 127
-0.578912 0.364853 -0.094498 0 0 255
-0.284859 -0.335558 0.193890 76 153 0
0.713628 0.293899 -0.174425 0 127 127
0.162713 0.130110 0.212079 76 0 153
0.760759 0.433724 -0.091623 0 127 127
-0.553842 0.433724 -0.220491 0 127 127
0.111891 0.433724 -0.268110 0 127 127
-0.749409 0.174609 0.225736 127 127 0
0.527193 0.405142 -0.000036 255 0 0
-0.769898 0.106070 0.159991 127 127 0
-0.751709 0.032662 -0.228610 0 255 0
0.520350 0.406440 -0.171991 255 0 0
-0.562264 -0.215703 -0.242650 153 0 76
0.567004 -0.268890 0.162778 204 51 127
0.739801 0.412376 0.101796 0 127 127
-0.751709 -0.401549 0.144615 127 127 0
0.200590 0.422761 -0.256277 0 127 127
-0.077653 0.006929 -0.005243 76 153 0
-0.280093 0.058721 0.212079 76 153 0
0.548815 -0.378413 -0.002659 204 51 127
0.532523 -0.393882 -0.115633 255 0 0
0.544771 -0.101704 0.193890 76 0 153
-0.597101 0.090186 -0.014765 0 0 255
0.245028 0.006929 -0.175592 76 153 0
-0.669858 -0.319816 0.194211 127 127 0
0.673872 -0.468953 0.143885 127 0 127
-0.647324 -0.507559 0.189358 76 0 153
-0.345739 0.367958 -0.242650 153 0 76
0.721612 0.277892 0.161221 127 0 127
-0.597101 -0.333019 -0.163000 0 0 255
0.121273 -0.439355 0.067956 255 0 0
0.102609 -0.012559 0.129369 76 153 0
-0.185950 0.349588 0.193890 76 153 0
0.737789 0.433724 -0.269834 0 127 127
0.494635 -0.393882 -0.054414 255 0 0
-0.335610 0.433724 -0.246983 0 127 127
-0.208294 0.176830 0.200711 76 153 0
0.495491 -0.062100 -0.233555 153 0 76
-0.578912 -0.131135 0.131243 0 0 255
-0.676485 -0.233909 0.219108 127 127 0
-0.340458 -0.439355 0.105588 255 0 0
0.022633 -0.412071 -0.179933 255 0 0
-0.370953 0.406440 0.099484 0 127 127
0.035401 0.406440 -0.284643 0 127 127
0.395227 0.006929 -0.013822 76 153 0
-0.669858 -0.574913 0.146507 127 127 0
-0.745759 -0.229191 -0.174425 0 255 0
-0.597101 -0.287570 0.109202 0 0 255
-0.005165 -0.275022 0.212079 76 0 153
0.337733 -0.393882 0.170630 255 0 0
0.565113 0.406440 -0.340440 0 127 127
-0.752044 -0.417144 -0.238422 0 255 0
-0.262434 0.386952 0.193661 255 0 0
-0.504726 0.406440 0.067515 0 127 127
0.657950 -0.175249 0.175916 127 0 127
0.359430 -0.356631 -0.242650 153 0 76
-0.713919 -0.048288 0.201916 127 127 0
0.665465 -0.358147 0.143885 127 0 127
0.567004 -0.035430 0.103789 204 51 127
-0.077270 0.406440 0.060948 255 0 0
0.129688 -0.366296 -0.242650 153 0 76
-0.703027 -0.315953 -0.256277 0 255 0
0.058758 0.405142 -0.136111 0 127 127
-0.327885 -0.430260 0.187728 255 0 0
-0.550742 -0.354334 0.212079 76 153 0
0.258066 -0.439355 -0.024306 255 0 0
0.487828 0.433724 0.076880 0 127 127
-0.616669 0.406440 -0.199872 0 127 127
-0.736579 -0.112117 -0.256277 76 0 153
-0.319500 0.405142 -0.186967 0 127 127
0.721612 -0.474815 -0.178382 0 127 127
0.551089 -0.233436 0.199385 204 51 127
-0.560497 -0.246831 -0.233555 153 0 76
-0.044967 0.295950 0.212079 76 153 0
-0.669858 -0.009058 -0.158131 0 255 0
-0.283236 -0.012559 0.006839 76 153 0
-0.717998 0.433724 0.081874 0 127 127
0.548815 0.072558 0.176109 204 51 127
-0.381454 -0.514864 0.162074 76 0 153
0.641356 -0.125843 0.125696 127 0 127
-0.113919 -0.012559 -0.197303 76 153 0
-0.762681 -0.044063 0.125696 127 127 0
0.509490 0.386952 0.141186 255 0 0
-0.157157 -0.412071 -0.133618 255 0 0
-0.309026 -0.393882 -0.101626 255 0 0
-0.578912 0.026550 -0.072889 0 0 255
0.555346 0.433724 0.038444 0 127 127
0.722850 -0.503786 0.184810 76 0 153
0.739801 -0.559144 -0.180466 0 127 127
0.075837 -0.369568 0.193890 76 0 153
0.249970 -0.393882 0.015710 255 0 0
-0.522257 -0.412071 -0.012345 255 0 0
0.342758 -0.146481 0.212079 76 0 153
-0.578912 -0.103387 0.106580 0 0 255
-0.769657 -0.366931 0.225494 127 127 0
0.263975 -0.412071 0.098479 255 0 0
-0.451987 -0.012559 -0.138523 76 153 0
-0.036142 0.433724 0.176870 0 127 127
0.119314 -0.237332 0.193890 76 0 153
-0.522745 -0.369403 0.193890 76 153 0
0.650828 0.433724 -0.348813 0 127 127
0.190261 0.006929 0.099859 76 153 0
0.408109 -0.439355 0.099851 255 0 0
-0.409508 -0.012559 -0.192770 76 153 0
-0.578912 0.355319 -0.136074 0 0 255
-0.440293 0.037417 -0.233555 153 0 76
-0.436102 -0.160918 0.212079 76 153 0
-0.597101 0.156287 0.150196 0 0 255
0.708702 0.089452 0.125696 127 0 127
0.237875 0.152906 -0.233555 153 0 76
0.049804 -0.282642 -0.242650 153 0 76
0.608406 0.433724 0.006439 0 127 127
0.160870 -0.294081 0.212079 76 0 153
-0.351666 0.006929 0.068882 76 153 0
-0.669858 -0.474001 -0.220302 0 255 0
0.460303 -0.067780 0.212079 76 0 153
0.548604 0.042613 0.212079 76 0 153
-0.287604 0.433724 -0.285832 0 127 127
0.489631 0.433724 -0.341932 0 127 127
0.008906 0.433724 -0.259313 0 127 127
-0.290706 0.022507 -0.233555 153 0 76
0.299815 -0.355422 0.212079 76 0 153
-0.301827 -0.439355 -0.243946 255 0 0
0.661700 0.125398 -0.256277 0 127 127
-0.743579 0.341039 -0.156236 0 255 0
0.439348 0.433724 -0.241139 0 127 127
0.478380 0.365992 0.205258 76 0 153
-0.669858 0.051319 -0.188625 0 255 0
0.071553 -0.439355 0.040862 255 0 0
0.642557 -0.582778 -0.156236 0 127 127
0.599503 0.406440 -0.070807 0 127 127
-0.672395 0.433724 0.068602 0 127 127
-0.355516 0.405142 -0.187709 0 127 127
0.192555 0.405142 0.024659 255 0 0
-0.510972 0.227919 0.205258 76 153 0
-0.688047 0.325915 -0.223259 0 255 0
-0.535581 -0.439355 -0.005211 255 0 0
0.161048 -0.393882 -0.003106 255 0 0
-0.304884 0.222821 0.200711 76 153 0
0.650266 0.406440 0.075905 0 127 127
0.521474 -0.012559 -0.198915 76 153 0
-0.728973 -0.126494 0.205783 76 0 153
-0.101990 0.433724 0.087830 0 127 127
0.086219 0.411008 0.225736 0 127 127
0.115096 -0.439355 -0.120555 255 0 0
-0.260525 -0.291157 0.212079 76 153 0
0.660218 -0.317590 0.143885 127 0 127
-0.493655 -0.275912 -0.233555 153 0 76
0.681985 -0.604143 -0.156236 0 127 127
0.451939 0.072707 -0.242650 153 0 76
-0.509966 -0.012559 -0.028582 76 153 0
0.332487 -0.256632 0.193890 76 0 153
0.690009 -0.263836 -0.238087 153 0 76
0.634687 0.433724 0.181653 0 127 127
0.424066 -0.412071 0.153463 255 0 0
-0.418023 -0.039372 0.200711 76 153 0
-0.751709 -0.099975 -0.220464 0 255 0
-0.178495 -0.012559 -0.117877 76 153 0
-0.086144 0.194109 -0.233555 153 0 76
-0.716315 0.406440 -0.108032 0 127 127
-0.669858 0.126479 -0.190176 0 255 0
-0.014394 -0.439355 0.062757 255 0 0
0.639761 -0.126846 -0.237772 0 127 127
-0.348957 -0.393882 -0.110050 255 0 0
-0.492663 0.405142 0.184680 0 127 127
0.224536 -0.012559 -0.106136 76 153 0
-0.032234 -0.393882 0.045602 255 0 0
0.371784 0.406440 -0.311385 0 127 127
0.262440 0.406440 -0.097157 0 127 127
-0.697020 0.149279 0.207547 127 127 0
0.567004 0.067616 -0.127843 204 51 127
0.548815 -0.204761 0.057658 204 51 127
-0.669858 -0.264249 0.132770 127 127 0
0.639761 0.122408 -0.207383 0 127 127
0.703423 0.298384 0.033049 0 127 127
-0.751709 0.041356 0.204729 127 127 0
-0.578912 -0.113627 -0.149434 0 0 255
0.234719 0.405142 -0.230605 0 127 127
-0.733081 -0.057383 -0.066405 76 0 153
-0.149225 0.386952 0.154942 255 0 0
0.368760 -0.412071 0.114241 255 0 0
-0.753421 -0.314422 0.142173 127 127 0
-0.667786 -0.538331 -0.219898 0 255 0
-0.105559 0.226337 0.212079 76 153 0
0.041409 -0.000764 0.193890 76 0 153
0.503206 0.180422 -0.233555 153 0 76
0.435341 0.433724 -0.002203 0 127 127
-0.024955 -0.439355 0.000792 255 0 0
-0.717020 0.433724 -0.192410 0 127 127
0.207499 0.405142 0.136701 0 127 127
0.449220 0.406440 -0.229382 255 0 0
-0.427307 0.006929 -0.152419 76 153 0
0.077630 -0.012559 -0.079453 76 153 0
-0.013457 0.433724 -0.161277 0 127 127
-0.670905 -0.412291 -0.256277 0 255 0
0.421223 0.433724 0.196331 0 127 127
0.322948 -0.412071 0.026769 255 0 0
-0.668789 0.406440 -0.281389 0 127 127
0.567004 0.111338 -0.099053 204 51 127
-0.718626 -0.048288 0.158843 76 0 153
-0.285348 -0.412071 0.053482 255 0 0
0.705647 0.359689 -0.238087 0 127 127
0.021360 0.213353 0.212079 153 0 76
-0.698652 0.053127 -0.256277 0 255 0
0.677148 -0.233179 -0.113112 153 0 76
0.262190 -0.412071 0.189482 255 0 0
0.600789 0.406440 -0.263996 0 127 127
-0.416518 0.006929 0.041449 76 153 0
0.698196 -0.045806 -0.174425 76 153 0
0.721612 -0.536697 0.195903 127 0 127
0.697946 0.306400 0.193548 0 127 127
0.664750 0.050298 -0.238087 0 127 127
-0.693583 -0.174331 -0.238087 0 255 0
0.615277 0.433724 -0.093570 0 127 127
0.163279 0.006929 -0.124438 76 153 0
0.848936 0.420948 -0.211836 0 127 127
-0.418358 -0.393882 0.141588 255 0 0
0.385637 -0.012559 0.055404 76 153 0
-0.777351 0.433724 -0.322008 0 127 127
0.242947 0.406440 -0.019391 0 127 127
0.160816 -0.439355 0.105507 255 0 0
-0.029230 -0.012559 -0.205412 76 153 0
-0.597101 0.096821 -0.206067 0 0 255
0.093347 -0.412071 -0.153421 255 0 0
-0.410634 -0.247503 0.205258 76 153 0
0.216844 0.003304 0.212079 76 0 153
-0.178961 0.406440 0.103968 0 127 127
0.483906 -0.023763 0.212079 76 0 153
0.639761 -0.311404 0.160065 127 0 127
-0.317340 0.006929 -0.053818 76 153 0
0.536250 0.433724 -0.026776 0 127 127
0.034433 0.433724 -0.013429 0 127 127
0.229344 0.386952 0.064681 255 0 0
0.639761 -0.578222 -0.238661 0 127 127
0.739801 -0.460280 0.179249 127 0 127
0.226745 -0.441632 -0.219898 255 0 0
-0.597101 0.265816 -0.218401 0 0 255
-0.011602 -0.525532 0.162074 76 0 153
0.085060 -0.012559 -0.148622 76 153 0
-0.597101 -0.062315 -0.003274 0 0 255
-0.769898 0.370213 -0.241208 0 255 0
-0.035211 -0.012559 -0.170075 76 153 0
0.474579 0.106911 0.212079 76 0 153
0.668262 -0.351299 -0.256277 0 127 127
-0.504094 0.386952 -0.094496 255 0 0
-0.320781 0.196508 0.205258 76 153 0
-0.068177 0.406440 -0.214347 0 127 127
-0.705803 -0.264210 -0.174425 0 255 0
-0.683744 -0.612152 -0.252527 0 255 0
-0.669858 -0.585553 -0.211603 0 255 0
0.753720 0.409422 -0.270195 0 127 127
0.314096 0.433724 0.281943 0 127 127
0.846118 0.406440 -0.339185 0 127 127
-0.430401 0.064683 -0.233555 153 0 76
-0.578912 0.139561 -0.008307 0 0 255
0.028445 -0.012559 0.106925 76 153 0
0.396992 0.416019 -0.256277 0 127 127
0.567004 -0.212206 -0.036895 204 51 127
-0.702231 -0.246168 -0.256277 0 255 0
0.548815 0.027635 0.097222 204 51 127
-0.205571 -0.439355 0.042623 255 0 0
0.213524 0.433724 -0.354283 0 127 127
-0.005425 -0.393882 0.040975 255 0 0
0.639761 0.209001 -0.167793 0 127 127
0.466605 0.433724 0.211485 0 127 127
-0.366933 -0.217637 0.193890 76 153 0
0.562168 0.405142 -0.045595 0 127 127
-0.578912 -0.107364 -0.217708 0 0 255
0.162921 -0.439355 0.046136 255 0 0
-0.733886 0.433724 0.214746 0 127 127
-0.724442 -0.481778 0.225736 127 127 0
0.579314 0.406440 0.289644 0 127 127
0.513785 -0.412071 -0.225462 255 0 0
-0.692471 0.071532 -0.174425 0 255 0
0.280545 0.208828 -0.233555 153 0 76
0.254273 0.433724 -0.340000 0 127 127
-0.769898 -0.054338 -0.210606 0 255 0
-0.670839 0.124643 -0.255295 0 255 0
0.548815 -0.152089 0.136990 204 51 127
0.743324 0.406440 -0.108565 0 127 127
0.159801 -0.237339 0.200711 76 0 153
-0.688047 0.378134 0.161703 127 127 0
0.739801 -0.085547 0.203337 127 0 127
-0.723994 -0.330151 0.225736 127 127 0
0.487172 -0.005975 -0.242650 76 153 0
-0.767407 0.433724 -0.093305 0 127 127
0.336728 -0.412071 -0.090569 255 0 0
-0.385742 0.406440 -0.036570 255 0 0
-0.013162 0.405142 -0.238097 153 0 76
-0.356435 0.116367 -0.242650 153 0 76
0.738793 0.071822 -0.256277 0 127 127
0.367961 0.331422 0.212079 76 0 153
-0.096636 0.405142 -0.033217 255 0 0
-0.751709 -0.134314 -0.223131 0 255 0
0.706930 -0.563711 0.207547 127 0 127
0.286442 -0.505916 -0.192614 127 0 127
0.241544 -0.031003 -0.233555 153 0 76
0.443228 -0.505277 -0.192614 127 0 127
0.308866 0.107705 -0.242650 153 0 76
0.548815 0.039211 0.172002 204 51 127
-0.536388 -0.012559 -0.141192 76 153 0
0.260647 -0.197713 -0.242650 153 0 76
-0.578912 -0.002508 0.131958 0 0 255
-0.100363 -0.364393 0.193890 76 153 0
-0.578912 -0.351819 0.149393 0 0 255
-0.769898 -0.125116 -0.180228 0 255 0
-0.578912 0.287906 -0.035576 0 0 255
-0.144370 0.006929 -0.163682 76 153 0
0.221081 0.006929 -0.031672 76 153 0
-0.578912 -0.292293 0.205548 0 0 255
0.518299 0.006929 0.142887 76 153 0
-0.578912 0.106386 0.042278 0 0 255
-0.022387 0.237037 -0.233555 153 0 76
-0.706236 -0.165006 -0.014780 76 0 153
-0.342797 -0.439355 -0.169573 255 0 0
-0.264263 0.386952 -0.111058 255 0 0
-0.222643 -0.397462 0.212079 76 153 0
0.727164 -0.110753 -0.156236 0 127 127
0.172082 -0.393882 0.030942 255 0 0
-0.470142 -0.154872 0.212079 76 153 0
0.228187 -0.439355 -0.166975 255 0 0
-0.019056 -0.412071 -0.168334 255 0 0
0.110304 0.006929 0.048089 76 153 0
0.481331 0.386952 -0.176993 255 0 0
0.147553 0.433724 -0.070162 0 127 127
0.126421 0.154126 0.193890 76 0 153
-0.701311 -0.148617 -0.238087 0 255 0
0.117884 0.109762 0.212079 76 0 153
0.160712 -0.203078 0.212079 76 0 153
0.015141 0.291862 0.212079 76 0 153
-0.206652 0.144362 -0.233555 153 0 76
-0.243288 0.005208 -0.242650 76 153 0
-0.597101 -0.003073 0.077066 0 0 255
0.011910 0.380281 0.212079 255 0 0
0.680693 0.297306 0.065402 0 127 127
0.721612 -0.502479 0.146257 127 0 127
-0.725164 0.406440 0.163561 0 127 127
-0.327318 0.146734 0.212079 76 153 0
-0.784914 0.406440 0.204192 0 127 127
0.667609 -0.398139 -0.156236 0 127 127
-0.262348 -0.412337 0.216641 255 0 0
-0.578912 -0.233301 0.090472 0 0 255
-0.578912 -0.054899 0.195721 0 0 255
0.369139 -0.037971 0.212079 76 0 153
-0.421715 -0.127343 -0.242650 153 0 76
0.721612 -0.008394 -0.227571 0 127 127
0.185309 0.406440 0.096436 0 127 127
-0.746466 -0.225962 0.143885 127 127 0
-0.218924 0.139786 0.212079 76 153 0
-0.405239 0.354456 0.212079 76 153 0
0.587557 0.433724 -0.048544 0 127 127
-0.056854 0.433724 -0.167250 0 127 127
-0.106064 -0.012559 0.045367 76 153 0
-0.452157 -0.447770 0.189358 255 0 0
0.236383 0.334971 -0.242650 153 0 76
-0.583587 -0.430260 -0.198008 127 0 127
0.403454 0.386952 -0.198113 255 0 0
-0.402068 0.104711 0.193890 76 153 0
0.664769 0.306344 0.225736 127 0 127
-0.113029 0.159048 0.193890 76 153 0
0.649878 -0.479875 -0.256277 0 127 127
-0.548571 0.006929 -0.228261 153 0 76
0.548815 0.149428 0.209691 0 0 255
-0.707470 -0.609470 -0.174425 0 255 0
-0.853017 0.406440 -0.217555 0 127 127
0.330297 -0.012559 -0.064046 76 153 0
-0.301328 0.406440 0.165953 255 0 0
0.721612 0.379922 0.205795 127 0 127
0.474396 0.030694 0.212079 76 0 153
0.698773 -0.084667 -0.008447 76 153 0
0.739801 0.035769 0.146817 127 0 127
-0.473665 -0.252907 -0.242650 153 0 76
0.705983 0.126974 -0.174425 0 127 127
-0.148708 0.433724 0.177105 0 127 127
0.310864 -0.211233 -0.242650 153 0 76
0.099886 0.323812 0.212079 76 0 153
-0.769898 -0.548120 0.197108 127 127 0
-0.630121 -0.439355 -0.134560 255 0 0
-0.777529 0.433724 -0.039334 0 127 127
-0.419311 -0.439355 -0.087731 255 0 0
0.069991 0.405142 -0.208097 0 127 127
-0.439060 -0.393882 0.073660 255 0 0
-0.130999 0.405142 -0.033518 255 0 0
0.665079 -0.542440 0.207547 127 0 127
0.389128 -0.412071 -0.087876 255 0 0
-0.506653 0.433724 -0.072446 0 127 127
0.589258 -0.439355 0.150853 255 0 0
0.068136 0.326836 -0.242650 153 0 76
0.039553 -0.189141 0.212079 76 0 153
-0.690335 -0.189530 -0.156236 0 255 0
0.031021 -0.012559 0.037625 76 153 0
-0.694001 0.433724 -0.271605 0 127 127
-0.597101 -0.232282 0.175526 0 0 255
0.739801 -0.197362 -0.168228 0 127 127
-0.078170 -0.048340 -0.233555 153 0 76
-0.589059 0.406440 0.266264 0 127 127
-0.383894 0.406440 -0.138220 0 127 127
0.657843 0.159314 -0.238194 0 127 127
0.208140 0.433724 -0.228521 0 127 127
0.706022 -0.189723 -0.256277 0 127 127
-0.733520 0.305580 0.023921 153 0 76
0.429238 0.386952 -0.135881 0 127 127
0.318339 -0.393882 -0.182691 255 0 0
0.745280 0.406440 0.331696 0 127 127
-0.751709 -0.261264 0.164514 127 127 0
0.067920 -0.392583 0.204425 76 0 153
0.639761 -0.200198 -0.219305 0 127 127
-0.051894 0.330904 -0.233555 153 0 76
-0.313063 -0.522529 0.189358 76 0 153
0.567004 -0.221241 -0.122038 204 51 127
0.081888 0.003926 0.212079 76 0 153
0.715721 0.022982 0.143885 127 0 127
0.692693 -0.001906 -0.156236 0 127 127
-0.669858 0.325026 0.143971 127 127 0
0.639761 -0.380108 0.153620 127 0 127
-0.152297 -0.439355 0.029459 255 0 0
0.312895 0.433724 -0.181266 0 127 127
0.403141 -0.300426 0.212079 76 0 153
0.737333 -0.223455 -0.253809 0 127 127
0.567004 -0.161437 0.111382 204 51 127
0.032994 0.406440 0.122759 255 0 0
-0.730849 -0.139234 -0.006276 76 0 153
0.781795 0.406440 -0.045288 0 127 127
-0.400984 0.406440 0.036507 255 0 0
-0.380413 -0.471186 -0.210096 127 0 127
-0.458321 0.405142 0.164589 0 127 127
-0.036591 -0.433091 0.162074 76 0 153
-0.760974 -0.465489 0.184810 127 127 0
-0.183341 -0.412071 -0.170919 255 0 0
-0.688047 -0.142070 0.193967 127 127 0
0.694764 -0.429246 -0.174425 0 127 127
-0.578912 0.242389 -0.082696 0 0 255
0.567004 -0.093486 -0.013021 204 51 127
0.830745 0.433724 0.305053 0 127 127
0.056453 -0.393882 0.061585 255 0 0
-0.388392 0.345151 0.193890 76 153 0
-0.265949 0.204199 0.193890 76 153 0
-0.243051 0.386952 -0.223901 255 0 0
0.820934 0.406440 -0.070646 0 127 127
0.525413 0.046906 0.193890 76 0 153
-0.768503 -0.537732 0.125696 127 127 0
-0.710595 0.406440 -0.036923 0 127 127
-0.013467 0.406440 0.331847 0 127 127
0.739801 0.157354 -0.229469 0 127 127
0.213903 0.006929 -0.069898 76 153 0
-0.769898 0.076579 -0.215572 0 255 0
-0.585468 0.304226 0.212079 76 153 0
0.376374 0.023714 0.212079 76 0 153
-0.275532 0.248501 -0.233555 153 0 76
0.363510 -0.165825 0.193890 76 0 153
0.703929 0.359141 -0.156236 0 127 127
0.676166 0.270022 0.065655 0 127 127
-0.429249 -0.430260 0.181277 255 0 0
-0.053842 0.433724 0.112395 0 127 127
0.676139 -0.109860 -0.030037 76 153 0
-0.079088 0.006929 -0.207420 76 153 0
0.032587 0.317960 -0.233555 153 0 76
0.567004 0.227077 -0.179147 204 51 127
-0.280058 -0.448106 0.189358 76 0 153
-0.733520 -0.035516 0.038564 76 0 153
-0.366628 0.006929 -0.125170 76 153 0
-0.138690 0.006929 0.003679 76 153 0
-0.365641 -0.092237 -0.242650 153 0 76
0.309032 0.405142 0.062671 255 0 0
0.548815 0.003310 0.069778 76 153 0
-0.769898 0.409046 -0.057235 0 127 127
0.714200 0.076936 -0.156236 0 127 127
-0.413089 -0.012559 0.073603 76 153 0
-0.455707 0.006929 -0.023618 76 153 0
0.721612 0.161656 0.148318 127 0 127
-0.296846 0.406440 0.267681 0 127 127
-0.086945 0.433724 0.300673 0 127 127
-0.572553 -0.012559 0.024525 76 153 0
0.214833 0.006929 0.047451 76 153 0
0.508954 0.240629 -0.242650 153 0 76
-0.269478 -0.103119 0.193890 76 153 0
-0.440057 -0.393882 0.157408 255 0 0
-0.499837 0.406440 -0.221402 255 0 0
-0.479930 -0.052822 0.212079 76 153 0
0.142919 -0.471186 -0.194368 127 0 127
-0.410570 0.386952 -0.212761 255 0 0
-0.282583 0.353126 0.193890 76 153 0
0.711233 0.263444 0.207547 127 0 127
-0.115057 -0.412071 -0.009838 255 0 0
-0.578912 0.353258 0.016662 0 0 255
0.695455 -0.184707 -0.132266 153 0 76
0.383550 0.386952 0.063180 255 0 0
0.052403 0.386952 -0.170220 255 0 0
0.093823 -0.498470 0.186046 76 0 153
-0.687251 -0.503258 0.143089 127 127 0
-0.706558 -0.211991 -0.051906 153 76 0
-0.497805 -0.031723 0.193890 76 153 0
0.015066 -0.504832 0.162074 76 0 153
0.567004 -0.252438 -0.077706 204 51 127
-0.251503 0.386952 0.124364 255 0 0
-0.854806 0.433724 -0.034291 0 127 127
-0.080075 0.386952 0.164205 255 0 0
0.659146 -0.443041 -0.215351 127 0 127
-0.874449 0.433724 0.162573 0 127 127
-0.321051 0.025808 0.200711 76 153 0
-0.578912 0.050322 -0.130246 0 0 255
-0.064717 0.113428 0.193890 76 153 0
0.115462 0.254026 0.212079 76 0 153
-0.199790 0.433724 -0.157709 0 127 127
-0.121513 -0.062853 0.193890 76 153 0
-0.745075 0.270226 -0.238087 0 255 0
0.739801 -0.028259 -0.230074 0 127 127
-0.338192 0.433724 0.300511 0 127 127
0.052585 0.042072 0.193890 76 0 153
-0.597101 0.176835 0.132313 0 0 255
-0.442261 0.006929 0.110523 76 153 0
-0.212442 -0.412071 0.147655 255 0 0
0.544268 0.001252 -0.093331 76 153 0
-0.669858 -0.207246 -0.185812 0 255 0
-0.420127 0.155112 -0.233555 153 0 76
0.302399 -0.161540 0.205258 76 0 153
0.548815 0.222979 0.120579 204 51 127
-0.508513 -0.012559 -0.075236 76 153 0
-0.578912 0.348377 0.116642 0 0 255
0.741668 0.433724 0.004106 0 127 127
0.567004 -0.346621 0.183019 204 51 127
0.301039 0.006929 0.065586 76 153 0
0.195539 0.242404 0.205258 76 0 153
-0.112226 0.405142 0.025577 0 127 127
0.696974 0.280226 0.225736 127 0 127
0.476059 -0.210435 0.209883 76 0 153
0.680686 -0.109477 -0.216537 76 153 0
0.292167 0.326558 -0.242650 153 0 76
0.567004 0.169521 0.074194 204 51 127
0.087811 -0.393882 0.017195 255 0 0
-0.525599 -0.501650 -0.192614 127 0 127
-0.879033 0.410183 0.074615 0 127 127
-0.395252 -0.167078 0.205258 76 153 0
-0.119967 0.433724 0.119940 0 127 127
0.346644 -0.091229 0.200711 76 0 153
0.450711 0.406440 0.251414 0 127 127
0.290237 0.058407 0.193890 76 0 153
0.791849 0.406440 -0.147429 0 127 127
-0.423178 -0.530091 0.162074 76 0 153
-0.187973 0.406440 -0.157793 255 0 0
0.675644 -0.146820 0.125696 127 0 127
-0.769898 -0.392322 -0.168163 0 255 0
0.657950 0.294220 0.163938 127 0 127
-0.554731 0.372649 0.193890 76 153 0
0.463924 0.006929 -0.144925 76 153 0
0.518387 0.281146 -0.242650 153 0 76
-0.733520 0.245950 0.087050 153 0 76
-0.583922 0.396047 0.099751 0 0 255
-0.597101 -0.126242 -0.175779 0 0 255
0.451721 -0.042267 0.200711 76 0 153
-0.281746 -0.191237 0.212079 76 153 0
0.147760 0.406440 0.225064 0 127 127
-0.157682 -0.041880 0.200711 76 153 0
0.716451 0.406440 0.293126 0 127 127
0.446347 0.406440 0.138768 255 0 0
-0.597101 0.351931 0.143290 0 0 255
-0.578912 0.197050 0.088643 0 0 255
0.567004 -0.238762 -0.195312 204 51 127
0.565578 0.433724 0.082565 0 127 127
-0.422746 0.007746 -0.242650 153 0 76
-0.578912 0.380469 0.174568 255 0 0
-0.356734 0.005322 -0.242650 76 153 0
-0.578912 0.028607 -0.167764 0 0 255
-0.276970 -0.130915 0.193890 76 153 0
0.680686 -0.118630 0.179227 76 153 0
-0.452677 -0.224800 0.212079 76 153 0
0.393884 -0.190807 0.193890 76 0 153
-0.527235 -0.251341 0.193890 76 153 0
-0.044278 0.406440 -0.140895 255 0 0
0.502273 -0.034587 0.193890 76 0 153
-0.254785 -0.012559 0.074900 76 153 0
-0.301908 0.279698 0.212079 76 153 0
-0.343445 -0.414243 0.216641 255 0 0
-0.534097 -0.439355 0.196597 255 0 0
0.657950 0.103539 -0.213366 0 127 127
0.329368 -0.080152 -0.242650 153 0 76
0.669032 -0.526623 -0.156236 0 127 127
-0.081454 -0.504065 -0.219898 127 0 127
-0.769898 0.385251 -0.187509 0 255 0
0.468987 -0.012559 0.043292 76 153 0
-0.477273 0.406440 -0.254367 0 127 127
-0.669858 0.279154 0.154978 127 127 0
-0.428444 0.405142 -0.073019 0 127 127
-0.514008 0.088516 0.193890 76 153 0
-0.578912 -0.225143 -0.211330 0 0 255
0.084037 0.006929 0.082285 76 153 0
0.256095 0.406440 0.084788 0 127 127
-0.748834 -0.316797 -0.238087 0 255 0
-0.578912 -0.300393 -0.129502 0 0 255
-0.669858 -0.458378 0.126358 127 127 0
0.538273 -0.301513 0.193890 204 51 127
-0.417863 0.192497 0.212079 76 153 0
-0.370200 0.406440 0.031036 255 0 0
0.233395 -0.356189 0.212079 76 0 153
-0.320597 -0.412071 0.140738 255 0 0
-0.721033 -0.111950 0.039723 76 0 153
0.605593 0.406440 0.164471 0 127 127
-0.020448 0.433724 -0.349546 0 127 127
0.224924 0.405142 -0.052685 255 0 0
0.276063 -0.190267 0.205258 76 0 153
-0.285110 -0.449765 0.162074 76 0 153
-0.742976 -0.345130 -0.174425 0 255 0
-0.514471 0.386952 0.121613 0 127 127
0.542631 0.055735 -0.233555 153 0 76
-0.436176 -0.439355 -0.244754 255 0 0
-0.818348 0.406440 -0.139325 0 127 127
-0.084977 -0.412071 0.110436 255 0 0
0.567004 -0.118825 -0.040773 204 51 127
0.689968 0.175344 0.225736 127 0 127
-0.717758 -0.520234 -0.256277 0 255 0
-0.074798 0.243256 -0.233555 153 0 76
-0.036671 -0.393882 0.189202 255 0 0
0.362730 -0.498470 -0.193179 127 0 127
0.397234 0.310421 -0.233555 153 0 76
-0.089100 0.406440 -0.103908 0 127 127
-0.573669 0.210234 0.193890 76 153 0
-0.541719 0.113377 0.193890 76 153 0
0.596011 -0.517312 0.162074 76 0 153
-0.514099 0.433724 -0.169966 0 127 127
0.381586 -0.012559 -0.173809 76 153 0
0.484393 0.405142 -0.022617 255 0 0
-0.669858 0.087967 0.198542 127 127 0
-0.434150 0.100054 0.193890 76 153 0
0.739801 0.386628 -0.173403 0 127 127
0.293266 0.355333 0.193890 76 0 153
0.144265 -0.412071 0.093961 255 0 0
-0.578912 -0.081281 0.159551 0 0 255
0.698519 0.260927 -0.198191 0 127 127
0.701790 -0.139234 -0.040095 76 153 0
-0.560824 -0.439355 -0.040202 255 0 0
-0.116480 -0.412071 0.192240 255 0 0
-0.187875 0.006929 -0.041283 76 153 0
-0.743546 -0.188556 0.207547 127 127 0
-0.298618 0.381948 -0.233555 255 0 0
0.721612 0.017211 -0.199960 0 127 127
-0.496719 0.406440 0.289727 0 127 127
0.014566 -0.012559 -0.098025 76 153 0
-0.226808 0.433724 -0.088739 0 127 127
0.158214 -0.393882 -0.178442 255 0 0
-0.431445 -0.131374 0.205258 76 153 0
0.567004 0.010403 -0.191057 204 51 127
0.353998 -0.498470 0.186631 76 0 153
0.738923 -0.329228 0.225736 127 0 127
0.125303 0.272313 -0.242650 153 0 76
0.032442 -0.487207 -0.192614 127 0 127
0.667169 0.029378 0.207547 127 0 127
0.715447 -0.039445 0.207547 127 0 127
-0.241466 0.433724 -0.239675 0 127 127
-0.391800 -0.412071 -0.184709 255 0 0
0.550049 -0.538582 -0.192614 127 0 127
-0.415553 0.433724 0.050124 0 127 127
-0.328543 0.006929 0.122085 76 153 0
-0.151498 0.433724 0.025227 0 127 127
0.721612 -0.576042 0.147889 127 0 127
0.653311 0.265216 0.125696 127 0 127
0.458267 0.101108 -0.233555 153 0 76
0.739801 -0.608634 -0.169887 0 127 127
0.645021 0.034392 0.225736 127 0 127
-0.163110 -0.412071 -0.071169 255 0 0
-0.137778 -0.412071 -0.221187 255 0 0
0.520329 -0.412071 0.190466 255 0 0
-0.337742 -0.118132 -0.233555 153 0 76
-0.211981 0.406440 -0.188107 0 127 127
-0.195392 -0.412071 0.070786 255 0 0
0.580344 -0.439355 -0.001946 255 0 0
0.819483 0.433724 0.146299 0 127 127
0.548815 0.196801 -0.110740 204 51 127
0.022525 0.406440 0.266021 0 127 127
0.567004 -0.244430 -0.241256 204 51 127
0.639761 -0.102265 0.165247 127 0 127
0.567004 0.269926 0.153843 204 51 127
0.567004 -0.328223 -0.064440 204 51 127
-0.688047 0.176868 0.153233 127 127 0
0.632225 0.406440 -0.235656 0 127 127
0.077579 0.094290 0.200711 76 0 153
0.536292 -0.516842 0.189358 76 0 153
0.703423 0.246498 0.015024 0 127 127
0.678236 -0.193241 -0.156236 153 0 76
0.315937 -0.412071 0.066161 255 0 0
0.160200 0.386952 0.141195 255 0 0
0.702357 -0.573074 -0.174425 0 127 127
0.329864 0.167952 -0.233555 153 0 76
-0.578912 0.199530 -0.202885 0 0 255
0.126511 -0.302462 -0.233555 153 0 76
-0.230609 0.433724 0.205906 0 127 127
-0.829053 0.406440 0.296963 0 127 127
-0.124734 -0.393882 0.032878 255 0 0
-0.597101 0.135850 -0.122885 0 0 255
0.567004 -0.407936 -0.035304 255 0 0
0.548815 0.182184 0.136437 204 51 127
-0.087805 -0.003998 0.195628 76 153 0
0.456994 -0.012559 -0.226605 76 153 0
-0.172761 -0.012559 0.035782 76 153 0
-0.732315 -0.184707 0.038773 76 0 153
-0.578912 0.385716 -0.177087 255 0 0
-0.387575 0.432135 -0.365411 0 127 127
0.451001 0.386952 0.090641 255 0 0
-0.111371 0.386952 -0.220159 255 0 0
0.717658 0.174973 -0.156236 0 127 127
0.657950 -0.168408 -0.181133 0 127 127
-0.705056 -0.262420 0.143885 127 127 0
-0.469246 -0.412071 -0.086350 255 0 0
-0.725010 -0.362505 -0.238087 0 255 0
-0.879033 0.408769 -0.109755 0 127 127
0.729737 -0.517315 -0.156236 0 127 127
0.567004 -0.329766 0.136423 204 51 127
0.458044 -0.171605 0.193890 76 0 153
-0.517936 -0.175658 0.193890 76 153 0
-0.841956 0.433724 0.271683 0 127 127
-0.597101 0.377077 -0.043629 0 0 255
0.711997 -0.436309 0.125696 127 0 127
0.297231 0.115532 0.193890 76 0 153
0.721612 -0.471648 -0.232903 0 127 127
0.548815 0.064244 0.084324 204 51 127
0.197684 -0.140337 0.212079 76 0 153
-0.669858 0.121046 -0.163197 0 255 0
-0.578912 -0.174435 0.106128 0 0 255
-0.137100 -0.012559 0.144588 76 153 0
0.166927 -0.184273 -0.233555 153 0 76
-0.397697 0.433724 0.209951 0 127 127
-0.236124 -0.012559 -0.023309 76 153 0
-0.561691 0.405142 -0.170927 255 0 0
0.668761 -0.054337 0.225736 127 0 127
0.272313 -0.276670 0.212079 76 0 153
-0.119026 -0.430260 -0.196483 127 0 127
-0.689177 -0.411032 0.207547 127 127 0
0.026151 0.386952 0.040184 255 0 0
-0.669858 -0.424704 -0.181757 0 255 0
-0.664921 0.406440 -0.204831 0 127 127
0.579587 -0.435058 -0.192614 255 0 0
-0.367337 0.406440 -0.243426 153 0 76
0.278402 -0.393882 -0.020463 255 0 0
-0.203769 0.433724 -0.271947 0 127 127
-0.371698 0.110913 0.193890 76 153 0
-0.518943 0.386952 0.001253 0 127 127
-0.752161 -0.395584 -0.256277 0 255 0
-0.298745 0.433724 -0.251801 0 127 127
-0.707571 -0.430609 0.225736 127 127 0
0.721612 0.324655 -0.201014 0 127 127
0.204707 -0.412071 -0.010247 255 0 0
-0.669858 0.220411 0.170764 127 127 0
-0.669858 -0.229861 0.127898 127 127 0
0.548815 -0.241064 0.103211 204 51 127
-0.345125 -0.439355 0.033825 255 0 0
-0.597101 -0.051480 0.145645 0 0 255
0.663062 0.364136 -0.256277 0 127 127
-0.137950 0.006929 -0.049267 76 153 0
-0.338797 0.006929 -0.022352 76 153 0
-0.578912 0.064796 -0.077849 0 0 255
0.567004 -0.238769 0.148156 204 51 127
-0.285027 -0.536491 -0.192614 127 0 127
0.548815 0.404096 0.165788 204 51 127
0.696924 0.029278 -0.156236 0 127 127
0.466709 0.006929 0.086176 76 153 0
-0.597101 -0.390764 -0.157044 0 0 255
0.302951 0.433724 0.181240 0 127 127
0.075114 -0.012559 -0.113948 76 153 0
0.566665 0.433724 0.259903 0 127 127
0.679604 -0.116098 0.207547 127 0 127
0.719708 0.432955 0.225736 0 127 127
0.579605 -0.526440 -0.219898 127 0 127
-0.669858 -0.011261 0.162962 127 127 0
-0.578912 0.052670 -0.185662 0 0 255
0.490605 -0.105236 0.193890 76 0 153
0.724721 0.268558 -0.171316 0 127 127
-0.597101 0.331837 -0.185374 0 0 255
0.488088 0.006929 -0.159494 76 153 0
-0.669858 -0.172779 0.198299 127 127 0
-0.332012 0.096616 0.212079 76 153 0
-0.649127 0.433724 -0.264124 0 127 127
0.400620 -0.393882 0.046719 255 0 0
-0.461723 0.125477 -0.242650 153 0 76
0.548815 -0.032394 0.014249 204 51 127
0.386515 0.284433 0.200711 76 0 153
-0.779059 0.406440 0.278222 0 127 127
-0.597101 -0.319026 0.038830 0 0 255
0.491718 -0.115792 -0.233555 153 0 76
0.349617 0.006929 -0.184340 76 153 0
0.344190 0.267281 0.193890 76 0 153
-0.251843 -0.456558 -0.192614 127 0 127
0.027985 0.406440 0.323824 0 127 127
0.739801 -0.271128 0.199709 127 0 127
0.408831 0.006929 -0.067721 76 153 0
0.800974 0.433724 -0.194874 0 127 127
0.548815 0.121267 0.055894 204 51 127
-0.389621 0.006929 -0.198652 76 153 0
0.657950 -0.014632 -0.205930 0 127 127
0.567004 -0.034803 -0.144049 204 51 127
0.034880 -0.012559 0.149710 76 153 0
0.511704 0.319159 0.193890 76 0 153
0.409756 0.405142 0.154406 0 127 127
0.385403 0.405142 -0.153597 255 0 0
-0.768776 -0.540222 -0.156236 0 255 0
0.352707 -0.434362 -0.247182 255 0 0
0.488036 0.406440 -0.275384 0 127 127
0.665781 0.327691 -0.256277 0 127 127
-0.710515 -0.239274 -0.086360 153 76 0
-0.486800 0.406440 0.147519 255 0 0
-0.757492 0.384494 0.138102 127 127 0
-0.521493 -0.292342 -0.233555 153 0 76
0.705185 -0.469356 0.207547 127 0 127
-0.578912 0.062978 0.163499 0 0 255
0.259576 0.006929 0.100630 76 153 0
-0.003392 0.006929 -0.069347 76 153 0
0.252438 0.233683 -0.242650 153 0 76
0.419273 0.186971 -0.233555 153 0 76
-0.720420 -0.030099 0.066998 76 0 153
0.125762 -0.334023 0.205258 76 0 153
0.567004 -0.199735 -0.076853 204 51 127
-0.565083 -0.412071 0.147271 255 0 0
0.302168 0.406440 -0.069903 0 127 127
-0.706236 -0.227746 0.107105 153 76 0
0.232071 -0.439355 -0.020155 255 0 0
0.185227 -0.366475 -0.233555 153 0 76
-0.069616 -0.168843 0.204700 76 153 0
0.739801 -0.059072 -0.157467 0 127 127
-0.542212 0.386952 -0.127049 255 0 0
0.567004 0.154956 -0.013989 204 51 127
0.264703 0.014464 -0.242650 153 0 76
0.161907 0.283691 0.212079 76 0 153
-0.221358 0.406440 0.054885 0 127 127
0.548815 0.303950 0.194547 76 0 153
-0.597101 0.194565 -0.161339 0 0 255
-0.751709 -0.515569 0.164623 127 127 0
-0.597101 0.349504 -0.214151 0 0 255
-0.688047 -0.117154 0.165939 127 127 0
-0.751709 0.161341 0.201931 127 127 0
0.700949 0.077131 -0.256277 0 127 127
-0.769898 -0.497397 -0.227240 0 255 0
0.090756 -0.393882 -0.008584 255 0 0
0.681227 -0.239274 -0.055110 153 0 76
0.051157 0.214701 -0.233555 153 0 76
0.703423 -0.208673 0.109469 153 0 76
0.416369 -0.526527 -0.192614 127 0 127
0.023873 -0.314058 0.193890 76 0 153
-0.400963 -0.439355 -0.007384 255 0 0
-0.056992 -0.412071 -0.131701 255 0 0
0.079336 -0.012559 -0.034396 76 153 0
-0.499498 0.406440 0.028317 255 0 0
0.022535 0.433724 -0.209743 0 127 127
-0.448882 -0.393882 0.024102 255 0 0
0.567004 0.365721 0.130258 204 51 127
0.632163 0.433724 0.233937 0 127 127
0.615426 0.406440 -0.022711 0 127 127
-0.247902 -0.439355 0.057533 255 0 0
0.116581 -0.127410 -0.242650 153 0 76
-0.733520 -0.149907 -0.077843 76 0 153
-0.669858 0.382891 -0.178332 0 255 0
0.011550 0.347497 -0.242650 153 0 76
0.721612 -0.360560 -0.209246 0 127 127
-0.499918 -0.498470 -0.197548 127 0 127
0.548815 0.359887 -0.125661 204 51 127
-0.670631 -0.080876 0.224963 127 127 0
0.220484 0.406440 -0.279950 0 127 127
-0.504481 0.006929 -0.124800 76 153 0
0.267317 -0.412071 0.004274 255 0 0
0.086357 0.284534 0.212079 76 0 153
0.548657 0.131055 -0.242650 204 51 127
0.137393 -0.012559 -0.163305 76 153 0
-0.546779 -0.393882 -0.111707 255 0 0
0.657950 0.097449 0.173848 127 0 127
0.227112 -0.430260 0.162799 76 0 153
0.568096 -0.412071 -0.120814 255 0 0
-0.435085 -0.090561 0.200711 76 153 0
-0.509819 0.006929 0.100505 76 153 0
-0.597101 -0.385153 0.002740 0 0 255
0.567004 0.032976 0.140545 204 51 127
-0.693958 0.179301 -0.256277 0 255 0
-0.669858 0.140619 0.190920 127 127 0
-0.206707 -0.453460 -0.192614 127 0 127
0.127787 -0.012559 0.105221 76 153 0
0.567004 0.335304 0.020397 204 51 127
0.430317 0.083645 -0.233555 153 0 76
0.220569 -0.012559 -0.013328 76 153 0
-0.751709 -0.598009 0.160580 127 127 0
-0.828016 0.433724 -0.100089 0 127 127
0.648144 0.414966 0.225736 0 127 127
0.139242 -0.439355 -0.170176 255 0 0
0.599367 -0.539395 -0.207494 127 0 127
-0.578912 -0.352467 -0.070582 0 0 255
-0.660663 0.406440 0.021635 0 127 127
-0.320937 -0.439355 -0.110204 255 0 0
0.129619 0.406440 -0.217623 255 0 0
0.478465 0.284862 -0.242650 153 0 76
0.676747 -0.211991 -0.045634 153 0 76
0.455042 -0.393882 0.001233 255 0 0
0.038950 0.406440 -0.229605 255 0 0
0.639761 0.195041 -0.211005 0 127 127
-0.686982 -0.001462 -0.239153 0 255 0
-0.224255 -0.079843 0.212079 76 153 0
-0.578912 0.277468 -0.094463 0 0 255
0.253350 0.433724 -0.014242 0 127 127
0.185769 -0.441501 -0.192614 255 0 0
-0.699611 -0.006237 -0.174425 0 255 0
0.121044 -0.098195 0.212079 76 0 153
-0.597101 -0.027322 -0.116640 0 0 255
-0.516888 0.247102 -0.233555 153 0 76
0.312210 0.433724 -0.243728 0 127 127
-0.400672 -0.439355 -0.149502 255 0 0
-0.262583 0.405142 -0.237048 255 0 0
0.248689 -0.012559 0.074122 76 153 0
-0.495398 -0.412071 0.036991 255 0 0
0.665527 -0.453595 0.166621 76 0 153
0.000396 -0.439355 -0.175934 255 0 0
-0.171058 0.339381 -0.242650 153 0 76
-0.726618 0.217697 0.143885 127 127 0
-0.312115 -0.357959 -0.233555 153 0 76
0.212124 -0.412071 0.039354 255 0 0
0.388440 -0.393882 0.125144 255 0 0
0.478414 -0.435266 -0.219898 255 0 0
-0.751709 -0.506085 0.200339 76 0 153
-0.588007 -0.364081 -0.239841 0 0 255
0.457002 -0.312829 0.193890 76 0 153
-0.723067 0.409384 -0.256277 0 127 127
0.512390 0.433724 -0.117550 0 127 127
-0.597101 -0.206562 0.093952 0 0 255
0.703423 -0.211932 -0.139265 153 0 76
0.070654 0.126569 -0.242650 153 0 76
-0.107226 0.283000 0.200711 76 153 0
-0.532039 0.162783 0.212079 76 153 0
-0.669858 -0.368492 -0.175741 0 255 0
0.214542 0.386952 -0.077171 255 0 0
-0.071770 -0.412071 -0.019359 255 0 0
-0.361229 -0.439355 0.089047 255 0 0
-0.415415 0.406440 -0.143379 0 127 127
-0.769898 -0.042568 -0.187628 0 255 0
-0.256564 -0.393882 0.149319 255 0 0
-0.231697 0.386952 -0.166175 255 0 0
-0.732940 -0.111950 -0.044514 76 0 153
-0.728973 -0.082256 0.169328 76 0 153
-0.669858 0.047241 0.225624 127 127 0
-0.681728 0.284898 0.225736 127 127 0
0.181980 -0.412071 -0.063241 255 0 0
0.548815 -0.348599 -0.113884 204 51 127
0.119118 -0.175172 0.205258 76 0 153
0.003770 -0.412071 0.163185 255 0 0
0.321960 -0.393882 -0.056405 255 0 0
0.548815 -0.181653 -0.002162 204 51 127
0.773789 0.433724 0.246107 0 127 127
0.417991 0.406440 0.235253 0 127 127
0.135499 -0.012559 -0.207102 76 153 0
0.368730 -0.393882 -0.162626 255 0 0
0.166310 -0.151959 -0.233555 153 0 76
0.735462 -0.287930 -0.156236 0 127 127
0.771769 0.406440 0.218591 0 127 127
0.259975 -0.012559 -0.008353 76 153 0
0.812018 0.406440 0.030219 0 127 127
0.745648 0.433724 -0.134419 0 127 127
-0.350323 -0.507428 0.189358 76 0 153
0.355158 0.386952 -0.220102 255 0 0
-0.687316 -0.446665 0.208278 127 127 0
-0.133844 0.405142 -0.182146 255 0 0
0.208191 0.406440 -0.011715 0 127 127
0.721612 -0.035231 -0.180506 0 127 127
0.832533 0.406440 0.011069 0 127 127
0.008148 -0.439355 0.134742 255 0 0
0.657950 -0.422155 0.185759 127 0 127
0.044096 -0.441834 -0.219898 255 0 0
-0.396805 0.077998 0.212079 76 153 0
-0.769898 0.290088 -0.235449 0 255 0
0.688423 -0.466564 -0.156236 0 127 127
0.049310 -0.077430 0.193890 76 0 153
-0.733520 -0.209730 0.064203 153 76 0
0.533519 -0.412071 -0.134008 255 0 0
0.064221 0.375331 0.212079 76 0 153
-0.201159 -0.122832 -0.242650 153 0 76
0.703423 -0.163832 -0.149061 76 153 0
0.383095 0.433724 -0.224341 0 127 127
0.567004 -0.355878 -0.007394 204 51 127
-0.729994 0.320035 -0.256277 0 255 0
0.090522 -0.012553 0.193890 76 0 153
0.492640 0.433724 0.147556 0 127 127
0.514794 -0.393882 0.071152 255 0 0
-0.089979 0.122089 0.193890 76 153 0
0.548815 -0.059837 0.040907 204 51 127
0.548815 0.360721 -0.088520 204 51 127
-0.249189 -0.159231 0.212079 76 153 0
-0.750609 -0.525492 -0.174425 0 255 0
0.680616 0.433724 -0.178298 0 127 127
0.652047 -0.395486 -0.243991 0 127 127
0.133581 0.099174 -0.242650 153 0 76
-0.172200 0.405142 -0.133579 255 0 0
-0.078847 -0.284192 0.212079 76 153 0
0.845046 0.406440 0.064774 0 127 127
0.034923 -0.012559 -0.043489 76 153 0
-0.541640 -0.412071 -0.080433 255 0 0
-0.570785 -0.012559 -0.028424 0 0 255
0.399458 -0.030618 -0.242650 153 0 76
0.658788 -0.062354 0.143885 127 0 127
-0.707826 -0.434472 0.143885 127 127 0
0.383051 0.215378 -0.242650 153 0 76
0.739801 -0.270441 -0.209868 0 127 127
0.648735 0.433724 -0.116672 0 127 127
0.396342 0.433724 -0.355636 0 127 127
0.157658 0.433724 -0.028871 0 127 127
0.567004 0.032832 -0.240667 204 51 127
-0.765287 -0.232598 0.221124 127 127 0
0.661607 -0.543442 -0.256277 0 127 127
-0.178277 -0.393882 -0.048349 255 0 0
-0.425247 -0.070574 -0.233555 153 0 76
-0.597101 0.103836 -0.239833 0 0 255
-0.761312 -0.151005 -0.247690 0 255 0
-0.578912 -0.281712 -0.030775 0 0 255
0.208543 0.386952 -0.159255 255 0 0
-0.131206 -0.383676 -0.233555 153 0 76
-0.070860 0.255828 0.200711 76 153 0
0.664049 -0.010181 -0.174425 0 127 127
0.245191 -0.255160 0.212079 76 0 153
0.139965 0.432380 -0.365411 0 127 127
-0.578912 0.253916 -0.045436 0 0 255
-0.413739 -0.101100 0.212079 76 153 0
-0.178289 0.406440 0.293116 0 127 127
0.385174 0.433724 0.070460 0 127 127
-0.730583 0.369442 -0.238087 0 255 0
0.265377 0.386952 0.165264 255 0 0
0.309023 0.006929 0.147162 76 153 0
0.669345 -0.248474 0.207547 153 0 76
0.186753 -0.527014 0.162074 76 0 153
0.567004 -0.245332 -0.030891 204 51 127
-0.495241 0.006929 -0.179682 76 153 0
-0.730109 0.326443 0.143885 153 0 76
-0.213477 -0.012559 0.129078 76 153 0
-0.669858 0.177254 -0.242794 0 255 0
-0.362402 -0.439355 -0.075995 255 0 0
-0.578912 0.259394 -0.116904 0 0 255
-0.578912 -0.239479 -0.003861 0 0 255
-0.597101 0.146438 0.037117 0 0 255
0.023815 0.386952 0.165563 255 0 0
-0.170633 -0.393882 -0.213581 255 0 0
-0.416395 -0.393882 0.101179 255 0 0
0.342928 -0.126690 -0.233555 153 0 76
-0.389179 0.053268 0.212079 76 153 0
0.478237 0.006929 0.013923 76 153 0
-0.766567 0.273966 0.125696 127 127 0
-0.089469 0.200599 0.200711 76 153 0
0.247689 -0.393882 0.107145 255 0 0
-0.713934 0.279116 0.128307 127 127 0
-0.597101 0.321063 -0.131987 0 0 255
-0.840384 0.408819 -0.365411 0 127 127
0.489641 0.406440 -0.196195 0 127 127
0.250823 -0.229443 0.212079 76 0 153
0.111531 0.006929 -0.043449 76 153 0
-0.337377 0.387970 0.212079 255 0 0
0.548815 0.025880 -0.082904 204 51 127
-0.214228 0.406440 0.091737 255 0 0
-0.233431 0.128969 0.193890 76 153 0
-0.626798 -0.412071 -0.099163 255 0 0
0.693064 0.362314 0.207547 127 0 127
0.567004 0.122716 0.017907 204 51 127
0.739801 0.121431 -0.182392 0 127 127
0.315024 -0.226750 0.200711 76 0 153
0.489295 0.239043 0.200711 76 0 153
-0.579361 -0.439355 0.212614 255 0 0
0.159588 0.406440 -0.277991 0 127 127
-0.578912 -0.049508 -0.153242 0 0 255
-0.048284 -0.445272 -0.192614 255 0 0
-0.669858 -0.321734 0.144668 127 127 0
0.269000 -0.427717 -0.247182 255 0 0
-0.194419 0.411350 0.334871 0 127 127
-0.703888 0.091860 0.125696 127 127 0
0.236181 -0.439355 0.090418 255 0 0
-0.352213 -0.393882 -0.200554 255 0 0
0.567004 -0.357273 -0.206610 204 51 127
-0.310287 -0.393882 -0.165432 255 0 0
0.442042 -0.346023 0.193890 76 0 153
-0.797607 0.433724 -0.138150 0 127 127
-0.874903 0.406440 0.250104 0 127 127
0.311971 0.244246 0.193890 76 0 153
-0.694215 -0.455330 0.166621 127 127 0
0.052379 -0.150493 0.212079 76 0 153
0.515816 0.024849 -0.233555 153 0 76
0.680686 -0.070925 0.208704 127 0 127
-0.545633 0.386952 0.116942 255 0 0
0.698876 -0.120412 -0.242884 76 153 0
0.064507 -0.513280 -0.219898 127 0 127
0.074735 0.239599 0.193890 76 0 153
-0.729073 0.406440 -0.365015 0 127 127
-0.369749 0.006929 0.005870 76 153 0
-0.217389 0.339184 0.193890 76 153 0
0.443580 0.337739 0.193890 76 0 153
-0.597101 -0.293749 -0.168642 0 0 255
-0.767136 0.002350 -0.256277 0 255 0
0.264811 0.386952 0.042477 255 0 0
-0.239337 -0.393882 -0.186014 255 0 0
0.330278 -0.439355 -0.167680 255 0 0
0.657950 0.040573 0.172761 127 0 127
-0.366578 -0.430260 0.179100 76 0 153
-0.085779 0.383371 -0.242650 153 0 76
0.697421 0.270022 -0.000454 0 127 127
0.003179 -0.360858 0.193890 76 0 153
-0.578912 -0.048053 -0.063479 0 0 255
-0.578816 0.008614 0.212079 76 153 0
0.567004 0.346810 0.164263 204 51 127
0.739801 -0.039683 0.162432 127 0 127
0.154206 0.137525 -0.233555 153 0 76
-0.826363 0.433724 -0.179313 0 127 127
0.101506 0.386952 -0.178145 255 0 0
-0.397948 -0.380764 -0.233555 153 0 76
0.739801 -0.488178 0.199082 127 0 127
0.019346 -0.393882 -0.001482 255 0 0
-0.020426 0.405142 -0.150053 0 127 127
0.699737 0.324589 0.032758 0 127 127
-0.457775 0.433724 -0.114558 0 127 127
0.669091 -0.530301 0.172645 127 0 127
-0.627321 -0.531292 -0.192614 127 0 127
-0.155860 -0.439355 0.114314 255 0 0
0.057257 0.006929 0.073838 76 153 0
