ply
format ascii 1.0
element vertex 1281
property float x
property float y
property float z
property uchar red
property uchar green
property uchar blue
end_header
-0.460901 0.130053 0.281665 76 0 153
0.158089 0.005956 -0.164166 153 0 76
0.254913 0.037467 0.270234 76 153 0
0.284034 0.144778 0.358822 76 0 153
0.044651 0.014503 -0.081484 76 0 153
0.264026 -0.001535 -0.372737 255 0 0
-0.359686 0.122218 -0.347091 153 0 76
0.436536 0.103678 -0.137816 153 0 76
-0.027672 0.123481 -0.292495 76 0 153
-0.200032 0.005956 0.498083 127 0 127
-0.262315 -0.021822 -0.090166 0 0 255
0.215522 0.149121 -0.436981 76 0 153
0.406607 -0.012075 -0.406922 76 0 153
0.175702 0.044793 0.481987 127 0 127
-0.164828 -0.003110 0.302499 76 0 153
-0.245086 0.009948 0.266945 0 127 127
-0.360101 -0.376859 0.277444 204 51 127
-0.375430 0.072266 0.030524 76 153 0
-0.355710 -0.236573 -0.365051 153 0 76
-0.091118 0.005956 0.426196 76 0 153
-0.409619 0.058528 -0.354924 153 0 76
0.445096 -0.213424 0.268638 153 76 0
-0.115636 0.123481 -0.384354 76 0 153
0.438077 -0.032110 -0.347091 76 0 153
0.396631 -0.148925 0.254384 153 76 0
-0.132646 0.123481 -0.173357 76 0 153
-0.279335 0.123879 0.362321 76 0 153
0.232472 0.005956 0.478036 127 0 127
0.216120 0.005956 0.356794 76 0 153
-0.181552 0.123481 -0.086995 76 0 153
-0.379424 0.088821 0.188613 76 153 0
-0.185568 0.149122 -0.388327 76 0 153
0.246920 0.014503 -0.050863 76 0 153
0.177321 0.014503 -0.009024 76 0 153
-0.015364 0.005956 0.203715 76 0 153
-0.295012 0.149122 -0.305779 76 0 153
-0.081338 0.149122 0.161831 76 0 153
0.198120 0.149121 0.173394 76 0 153
0.179070 0.149121 -0.210352 76 0 153
-0.210713 0.121846 -0.398375 0 127 127
0.053405 0.092940 -0.398377 0 127 127
-0.282218 0.130145 -0.458199 76 0 153
0.390328 0.149121 0.316644 76 0 153
0.192589 0.123480 -0.291236 76 0 153
0.282691 -0.006705 0.029047 255 0 0
-0.219445 0.102304 0.108822 0 127 127
-0.245086 0.093718 0.039564 0 127 127
-0.412224 0.123481 0.292257 76 0 153
-0.213707 -0.021822 0.206959 0 0 255
0.237310 0.014503 0.059090 76 0 153
0.410897 0.042789 -0.154636 153 0 76
-0.372108 -0.760648 0.290541 204 51 127
0.146688 0.149121 0.013219 76 0 153
0.496364 0.134790 0.339350 76 0 153
-0.394591 0.123481 -0.245169 76 0 153
-0.402804 -0.317159 0.259637 204 51 127
-0.250306 0.149122 -0.239493 76 0 153
0.445102 -0.372526 -0.372065 76 0 153
0.423356 -0.212202 0.311042 153 76 0
-0.375434 0.048224 -0.231719 76 153 0
0.444440 0.043889 -0.406920 76 0 153
0.280553 0.056067 0.248744 76 153 0
-0.371252 -0.733264 -0.394222 153 0 76
0.427687 0.123480 0.169770 76 0 153
-0.417142 0.123481 0.277459 76 0 153
0.445091 -0.036126 0.282074 153 76 0
0.005575 0.014503 0.340640 76 0 153
-0.345413 0.088566 0.291068 76 0 153
-0.151791 0.123481 -0.267314 76 0 153
-0.409644 -0.579861 0.292435 204 51 127
0.156430 0.078544 0.481987 127 0 127
0.254913 0.064329 0.331459 76 153 0
0.199046 0.123480 0.019605 76 0 153
-0.214584 0.149122 0.196750 76 0 153
-0.258407 0.012366 -0.041586 0 0 255
-0.367853 0.123481 -0.152716 76 0 153
-0.219445 0.047316 0.377494 0 127 127
0.366167 0.090105 -0.384490 0 127 127
0.160237 0.027172 0.456346 127 0 127
0.162085 0.123480 -0.008258 76 0 153
0.014228 0.082955 0.481988 127 0 127
0.198451 0.014503 -0.052772 76 0 153
0.101782 0.123480 -0.402459 76 0 153
0.418813 0.123479 -0.406412 76 0 153
0.299022 -0.021822 0.215541 255 0 0
0.014064 0.045789 0.456346 127 0 127
0.346832 0.123480 -0.425317 76 0 153
0.180424 0.149121 -0.437633 76 0 153
-0.375432 0.027807 -0.154097 76 153 0
0.407894 0.081714 -0.347092 76 0 153
-0.375430 0.095532 0.147736 76 153 0
0.054569 0.005956 -0.165183 153 0 76
0.054071 0.050007 -0.372738 0 127 127
-0.054222 0.149122 -0.274101 76 0 153
0.436536 0.068035 0.074766 153 0 76
-0.229515 0.005956 0.151915 0 127 127
-0.272864 0.004338 -0.335546 0 0 255
0.108161 0.087517 -0.141945 153 0 76
-0.142950 0.014503 0.262518 76 0 153
-0.022579 0.005956 0.469526 127 0 127
-0.375430 0.021408 -0.011489 76 153 0
0.010934 0.102566 0.507629 127 0 127
-0.144889 0.123481 0.216393 76 0 153
-0.219447 0.027022 -0.161678 0 127 127
-0.247225 0.000627 -0.217797 0 0 255
0.279654 -0.035019 -0.398378 0 127 127
0.127449 0.123480 0.111494 76 0 153
-0.285840 0.149122 0.056650 76 0 153
-0.401071 0.101068 0.025509 76 153 0
-0.322168 0.038514 -0.386097 0 127 127
-0.239709 0.099461 -0.372735 0 127 127
0.412796 -0.028542 -0.203099 153 0 76
-0.393149 -0.732709 -0.368504 153 0 76
0.104167 0.003820 0.279243 76 0 153
0.427656 0.032973 -0.347092 76 0 153
-0.082291 0.005956 0.139149 76 0 153
0.280553 0.077190 0.149854 76 153 0
-0.067823 0.149122 -0.309222 76 0 153
-0.392105 -0.245988 0.311039 204 51 127
-0.083128 0.041227 0.507629 127 0 127
-0.245086 0.087741 0.318029 0 127 127
-0.029934 0.149122 -0.135152 76 0 153
-0.389342 -0.298971 0.311039 204 51 127
-0.388443 -0.132812 0.253877 204 51 127
0.254911 0.097332 -0.129596 76 153 0
0.307345 0.123480 -0.059384 76 0 153
-0.409621 -0.004605 -0.352234 153 0 76
-0.281375 0.123481 0.332675 76 0 153
0.436536 0.017579 -0.207451 153 0 76
0.410900 0.064119 -0.316858 153 0 76
0.436536 0.021855 0.163245 153 0 76
0.266066 0.076894 -0.167586 76 153 0
-0.210817 0.123481 -0.168167 76 0 153
-0.073415 -0.006692 0.276860 76 0 153
0.404748 -0.303508 0.311042 153 76 0
-0.005548 0.104246 0.494492 127 0 127
-0.354760 0.051629 0.251211 204 51 127
-0.037799 0.014503 -0.017415 76 0 153
0.280553 0.092359 0.191811 76 153 0
-0.430026 0.149122 -0.182904 76 0 153
0.109523 0.028394 -0.167585 153 0 76
0.028586 0.149121 -0.235219 76 0 153
0.089774 0.149121 -0.018077 76 0 153
0.322026 0.123480 -0.199431 76 0 153
-0.134232 0.123481 -0.111117 76 0 153
0.268210 0.005956 0.133775 76 153 0
-0.114884 0.005956 0.392003 76 0 153
0.171820 0.005956 0.340429 76 0 153
-0.093715 0.005956 -0.110247 76 0 153
-0.272864 -0.014571 -0.188567 0 0 255
0.445101 -0.306509 0.297028 153 76 0
0.472587 0.123480 0.047568 76 0 153
0.202025 0.123480 0.146660 76 0 153
-0.247223 0.003185 0.199355 0 0 255
0.008634 0.123481 -0.132385 76 0 153
0.280552 0.024920 -0.121412 76 153 0
-0.409641 -0.490393 -0.393900 153 0 76
0.361651 0.149121 -0.301280 76 0 153
-0.401071 0.117946 -0.022461 76 153 0
-0.375430 -0.011718 0.114910 76 153 0
-0.338165 0.123481 -0.141085 76 0 153
0.410628 -0.858228 -0.389934 76 0 153
-0.375430 0.107700 0.056581 76 153 0
0.457773 0.149121 -0.138159 76 0 153
-0.394421 -0.790730 -0.370317 153 0 76
0.236532 0.037745 0.456347 127 0 127
-0.423996 0.126299 -0.458200 76 0 153
0.271608 0.005956 0.243521 76 153 0
0.299596 0.012366 -0.093267 255 0 0
0.354663 0.123480 -0.148897 76 0 153
0.385255 0.037059 -0.390193 0 127 127
0.221535 0.123480 -0.116351 76 0 153
-0.460898 0.139582 -0.071274 76 0 153
0.385819 0.123480 0.175531 76 0 153
0.445090 -0.031111 0.265995 153 76 0
0.431501 -0.108013 0.253105 153 76 0
-0.408298 -0.400245 0.262234 204 51 127
0.021791 0.149121 0.277236 76 0 153
0.086875 0.014503 -0.040949 76 0 153
-0.234599 0.123481 0.126083 76 0 153
0.148214 0.005956 0.405870 76 0 153
-0.405904 -0.541866 -0.406918 153 0 76
0.359955 0.049514 0.302500 76 0 153
-0.081866 0.149122 0.115097 76 0 153
0.287082 0.012366 0.091346 255 0 0
0.011725 0.149122 -0.280954 76 0 153
0.248504 -0.011450 0.012696 255 0 0
0.265346 0.104246 0.285228 76 153 0
-0.096245 0.005956 0.462100 76 0 153
-0.137022 0.149122 0.225731 76 0 153
-0.133473 -0.012170 -0.372738 0 127 127
-0.261611 0.149122 0.129277 76 0 153
0.355683 0.149121 -0.257218 76 0 153
0.436536 -0.007322 0.137937 153 0 76
-0.001580 0.005956 -0.071797 76 0 153
0.243346 0.005956 -0.001722 76 0 153
-0.371474 0.149122 0.334736 76 0 153
-0.214785 0.020772 0.481987 127 0 127
0.212920 0.123480 -0.017558 76 0 153
-0.300031 0.149122 0.102542 76 0 153
0.421496 0.123481 -0.018039 153 0 76
-0.433024 0.149122 0.004292 76 0 153
0.183785 0.014503 0.316478 76 0 153
-0.011109 0.070283 -0.167585 153 0 76
0.058324 0.123480 -0.383768 76 0 153
0.139490 0.146810 -0.452296 76 0 153
-0.176615 0.014503 -0.006190 76 0 153
0.415888 0.123481 0.013808 153 0 76
-0.250455 0.098110 -0.398375 0 127 127
-0.208099 0.005956 0.268734 76 0 153
-0.245086 0.044083 0.326347 0 127 127
0.436536 0.009858 0.229926 153 0 76
0.040433 0.149121 -0.331923 76 0 153
0.176714 0.005956 0.438012 76 0 153
-0.416393 0.123481 -0.210721 76 0 153
-0.388394 0.123481 -0.051968 76 0 153
0.129113 0.014503 0.361966 76 0 153
0.424717 -0.795710 0.274595 153 76 0
-0.120104 0.014503 -0.124939 76 0 153
0.410895 0.058280 0.177312 153 0 76
0.098971 0.104245 0.495202 127 0 127
0.434331 -0.469891 0.311041 153 76 0
-0.070930 0.149122 0.149538 76 0 153
-0.402645 -0.568789 -0.406918 153 0 76
-0.219445 0.063196 0.355143 0 127 127
0.496366 0.127616 0.065026 76 0 153
0.445089 -0.010366 0.254866 153 76 0
0.424415 0.123480 -0.326660 76 0 153
-0.310661 0.123481 0.020920 76 0 153
-0.220594 0.003819 -0.086479 0 0 255
0.423695 -0.129168 -0.349645 76 0 153
-0.189298 0.149122 -0.303548 76 0 153
-0.066990 0.014503 -0.050041 76 0 153
0.254913 0.082053 0.093857 76 153 0
-0.401072 0.074511 -0.306013 76 153 0
-0.423142 0.149122 0.163735 76 0 153
0.258932 0.123480 -0.393808 76 0 153
0.321124 0.149121 -0.317533 76 0 153
0.473106 0.123480 -0.236808 76 0 153
0.254913 0.053418 0.469044 76 153 0
0.116710 0.005956 0.244727 76 0 153
-0.151226 0.001006 0.276858 76 0 153
-0.195095 0.104246 -0.154262 153 0 76
0.037020 0.014503 0.017931 76 0 153
0.445105 -0.461780 0.271653 153 76 0
-0.242259 0.003819 0.046056 0 0 255
-0.381562 -0.784739 0.311038 204 51 127
-0.430616 0.123481 -0.121324 76 0 153
-0.233894 -0.021822 0.068599 0 0 255
0.436536 0.095340 -0.115894 153 0 76
-0.332565 -0.011491 0.288527 76 0 153
-0.309320 0.123481 -0.327806 76 0 153
-0.247224 -0.011763 0.034890 0 0 255
0.046867 0.123480 -0.057404 76 0 153
0.050082 0.149121 0.104032 76 0 153
0.062540 0.149121 -0.126783 76 0 153
0.200808 0.149121 0.300216 76 0 153
-0.218325 0.149122 0.061979 76 0 153
-0.010578 0.014503 0.385166 76 0 153
0.410895 0.115238 0.126375 153 0 76
0.282691 -0.013388 -0.227738 255 0 0
-0.006206 0.123481 -0.071650 76 0 153
0.207886 0.149121 -0.268167 76 0 153
0.061028 0.058908 -0.167585 153 0 76
0.212183 0.123480 0.229973 76 0 153
0.107561 0.149121 0.104139 76 0 153
-0.350480 -0.069382 -0.373049 153 0 76
0.325386 0.149121 -0.259797 76 0 153
0.280553 0.056307 0.062102 76 153 0
0.045880 0.149121 -0.051042 76 0 153
0.218956 0.149121 -0.240409 76 0 153
0.140025 0.014503 0.223641 76 0 153
-0.460899 0.137645 0.014241 76 0 153
-0.179590 0.123481 0.198050 76 0 153
-0.375430 0.063863 -0.044729 76 153 0
0.280553 0.015598 0.218694 76 153 0
0.137834 0.123480 0.315127 76 0 153
-0.396687 0.149122 0.210183 76 0 153
0.487251 0.149121 -0.097850 76 0 153
-0.376696 -0.724278 -0.368240 153 0 76
-0.054545 0.149122 0.219836 76 0 153
0.197110 0.123480 -0.114200 76 0 153
-0.364487 -0.071199 -0.406920 153 0 76
-0.245086 0.046413 0.125725 0 127 127
0.345665 -0.047464 -0.392827 0 127 127
-0.065718 0.068567 -0.372737 0 127 127
-0.098718 0.014503 0.322920 76 0 153
-0.439901 0.149122 0.196470 76 0 153
-0.205694 0.123481 0.181338 76 0 153
0.053997 0.123480 -0.274993 76 0 153
0.387701 0.071336 0.251214 153 76 0
-0.198913 0.005956 0.448609 76 0 153
0.444602 -0.737060 -0.406920 76 0 153
-0.136474 0.014503 -0.147389 76 0 153
-0.006116 0.149122 0.141028 76 0 153
0.314663 0.149121 0.185528 76 0 153
-0.074914 0.014503 0.378976 76 0 153
0.072923 0.014503 0.108660 76 0 153
-0.409640 -0.518826 -0.368042 153 0 76
-0.449245 0.123481 -0.324629 76 0 153
-0.057789 0.005956 0.132376 76 0 153
0.103517 0.087924 0.481988 127 0 127
0.082907 0.095508 -0.372736 0 127 127
0.216618 0.149121 -0.313148 76 0 153
0.194944 0.107693 0.302500 76 0 153
0.273917 0.149121 0.282397 76 0 153
0.280552 0.086612 -0.126146 76 153 0
-0.237336 0.003819 -0.120314 0 0 255
-0.045121 0.149122 0.344344 76 0 153
0.057672 0.149121 -0.147859 76 0 153
0.119784 0.149121 0.085702 76 0 153
0.445109 -0.529370 0.296610 153 76 0
-0.331058 0.149122 -0.437564 76 0 153
0.282688 -0.009478 -0.280191 255 0 0
0.048056 0.123480 -0.004203 76 0 153
-0.048719 0.123481 -0.148845 76 0 153
-0.120675 0.104246 0.468536 127 0 127
0.130314 0.149121 -0.123407 76 0 153
0.082480 0.040064 0.481987 127 0 127
0.355157 0.007808 -0.398379 0 127 127
0.229228 0.014503 0.213608 76 0 153
0.140194 0.123480 0.342453 76 0 153
-0.001845 0.040607 0.481987 127 0 127
0.017849 0.149121 0.325470 76 0 153
0.280553 0.104127 0.080069 76 153 0
-0.219445 0.022291 0.378865 0 127 127
0.445114 -0.711757 -0.382900 76 0 153
-0.278816 0.061098 -0.398375 0 127 127
-0.065879 0.005956 0.432950 76 0 153
0.445093 -0.122895 -0.368036 76 0 153
-0.245086 0.065018 0.464655 0 127 127
0.213762 0.014503 0.159455 76 0 153
0.266619 -0.021822 -0.299144 255 0 0
-0.375433 0.109690 -0.318315 76 153 0
-0.200689 0.076670 0.481987 127 0 127
0.372920 0.079682 -0.372738 0 127 127
-0.409620 0.045543 0.253379 204 51 127
-0.409646 -0.632555 -0.394565 153 0 76
-0.094955 0.149122 -0.349552 76 0 153
0.278127 0.149121 -0.276335 76 0 153
-0.048344 0.149122 -0.029592 76 0 153
-0.256769 0.149122 -0.347758 76 0 153
-0.233120 -0.021822 0.216100 0 0 255
0.297785 0.012366 -0.210738 255 0 0
0.447072 0.123480 0.160608 76 0 153
-0.245086 0.080007 0.165844 0 127 127
0.095276 0.005956 0.247736 76 0 153
0.458162 0.149121 0.158561 76 0 153
-0.245086 0.060187 0.145605 0 127 127
-0.334243 0.115616 0.276856 76 0 153
-0.031796 0.098664 -0.167585 153 0 76
-0.183038 0.123481 -0.295446 76 0 153
-0.275479 0.149122 0.265948 76 0 153
-0.025373 0.015631 0.481987 127 0 127
-0.263713 -0.021822 -0.358237 0 0 255
0.240844 0.123480 -0.405331 76 0 153
0.223127 0.016884 -0.398378 0 127 127
-0.319759 0.149122 -0.329321 76 0 153
0.358258 0.054650 -0.372738 0 127 127
0.443094 -0.844948 0.276134 153 76 0
0.295292 0.012366 -0.345916 255 0 0
0.409970 -0.133510 0.311042 153 76 0
-0.294953 0.149122 -0.215089 76 0 153
0.408592 -0.793190 0.275111 153 76 0
0.444931 -0.522323 -0.406920 76 0 153
-0.253850 0.149122 -0.367160 76 0 153
-0.272864 -0.008247 0.237627 0 0 255
0.370332 0.123480 -0.173573 76 0 153
-0.253940 0.029093 -0.372740 0 127 127
-0.154666 0.104246 -0.165212 153 0 76
-0.219446 0.064192 0.091470 0 127 127
0.334780 0.123480 0.106470 76 0 153
-0.161481 0.123481 0.111201 76 0 153
-0.217458 0.123481 -0.134811 76 0 153
-0.139387 0.123481 0.105017 76 0 153
-0.039361 0.005956 0.165465 76 0 153
0.140350 0.003820 0.281355 76 0 153
-0.211779 0.149122 -0.206525 76 0 153
0.103865 0.005956 0.415232 76 0 153
0.213235 0.003819 0.291080 76 0 153
0.172139 0.014503 -0.090700 76 0 153
-0.366349 -0.525739 0.266157 204 51 127
-0.157673 0.005956 0.127502 76 0 153
0.215796 0.123480 -0.299554 76 0 153
-0.311450 0.123481 -0.267787 76 0 153
0.413915 -0.593628 0.311042 153 76 0
-0.385329 0.123481 -0.100099 76 153 0
-0.431585 0.149122 -0.428637 76 0 153
-0.163353 0.076111 0.507628 127 0 127
-0.409624 -0.081990 -0.365257 153 0 76
-0.409644 -0.640709 -0.367162 153 0 76
-0.023337 0.149122 -0.211392 76 0 153
0.130375 0.040514 -0.372739 0 127 127
0.275315 0.149121 0.302161 76 0 153
-0.075157 0.149122 -0.206010 76 0 153
-0.019901 0.005956 0.105385 76 0 153
-0.248465 0.123481 -0.116644 76 0 153
0.374655 0.086692 0.287748 76 0 153
0.148386 0.149121 -0.174297 76 0 153
-0.375445 0.029667 0.311039 204 51 127
-0.395644 -0.614902 -0.406918 153 0 76
0.396890 -0.315384 -0.406922 76 0 153
0.248503 -0.021681 -0.348473 255 0 0
0.308330 -0.013862 -0.216844 255 0 0
0.282689 0.006816 -0.201277 255 0 0
0.289048 0.149121 -0.296670 76 0 153
-0.377867 0.149122 -0.319272 76 0 153
0.390956 -0.229457 0.284940 153 76 0
0.445110 -0.577389 0.294341 153 76 0
0.149081 0.005956 0.144509 76 0 153
-0.056448 0.005956 0.236573 76 0 153
-0.339366 0.044573 0.302495 76 0 153
-0.234538 0.003819 0.076352 0 0 255
0.427702 -0.867974 -0.375376 76 0 153
0.395511 -0.326725 -0.355820 76 0 153
-0.094071 0.104246 -0.146579 153 0 76
0.194751 0.123480 0.079945 76 0 153
-0.219445 0.086576 0.455654 0 127 127
-0.401072 -0.006369 -0.253659 76 153 0
-0.360062 0.123481 0.133735 76 0 153
0.453481 0.123480 -0.157940 76 0 153
0.477711 0.123480 0.032086 76 0 153
0.274041 0.123480 0.094758 76 0 153
0.463379 0.149121 0.199945 76 0 153
0.037412 0.123477 0.296439 76 0 153
0.051106 0.149121 0.226461 76 0 153
0.095826 0.123480 -0.349411 76 0 153
-0.381147 -0.033278 -0.224213 76 153 0
-0.207961 0.108985 0.302498 76 0 153
-0.056495 0.005956 0.103296 76 0 153
-0.246126 -0.021822 -0.285480 0 0 255
0.216288 0.104246 0.474894 127 0 127
-0.382265 0.123481 0.114305 76 0 153
-0.107194 0.149122 -0.033870 76 0 153
-0.258935 0.123481 0.029408 76 0 153
0.083890 0.023300 0.481987 127 0 127
-0.363694 0.134944 0.362321 76 0 153
0.440025 0.047614 0.311041 153 76 0
0.100724 0.149121 0.256329 76 0 153
0.275066 0.104246 0.407744 76 153 0
0.412481 -0.088446 0.252494 153 76 0
-0.225385 0.005956 -0.007871 76 0 153
-0.399967 0.149122 -0.393046 76 0 153
0.442495 0.149121 -0.355728 76 0 153
-0.219447 0.033781 -0.074743 0 127 127
-0.165581 0.014503 -0.060001 76 0 153
-0.409633 -0.319481 -0.371045 153 0 76
0.301432 -0.021822 0.049877 255 0 0
-0.448142 0.149122 -0.414141 76 0 153
0.445091 -0.044628 -0.384697 76 0 153
-0.069003 0.104246 0.483039 127 0 127
-0.372867 -0.502638 -0.361314 153 0 76
0.244595 0.149121 -0.311235 76 0 153
0.280552 0.023761 -0.074741 76 153 0
-0.401071 0.016477 -0.046214 76 153 0
-0.137403 0.149122 -0.301819 76 0 153
0.172706 0.149121 -0.002561 76 0 153
-0.207152 -0.032729 0.283683 76 0 153
0.280553 0.027331 0.085609 76 153 0
-0.150990 0.005956 0.028727 76 0 153
0.120236 0.090808 -0.398377 0 127 127
-0.283402 0.149122 0.295286 76 0 153
-0.219445 0.095624 -0.079523 0 127 127
0.410895 0.105916 -0.236856 153 0 76
-0.382733 0.069911 -0.347090 153 0 76
-0.403482 -0.711533 -0.406918 153 0 76
-0.364301 -0.494375 -0.406919 153 0 76
0.386161 -0.046636 0.311043 153 76 0
-0.375430 -0.030489 0.146674 76 153 0
-0.033069 0.149122 0.291893 76 0 153
0.259159 0.149121 0.135534 76 0 153
-0.409627 -0.124177 0.268597 204 51 127
-0.001192 0.065328 -0.372737 0 127 127
-0.014789 0.064605 0.456346 127 0 127
0.436536 -0.005935 0.046866 153 0 76
-0.403243 -0.443655 -0.406918 153 0 76
-0.367482 -0.164156 0.254857 204 51 127
0.015363 0.104246 -0.159600 153 0 76
0.009886 0.005956 0.027982 76 0 153
0.409995 -0.838014 -0.375903 76 0 153
0.316483 0.123480 -0.005481 76 0 153
-0.335674 -0.031979 0.276857 76 0 153
-0.231453 0.149122 0.114840 76 0 153
0.399266 -0.495072 0.281315 153 76 0
0.445103 -0.380079 -0.388372 76 0 153
-0.066878 0.005956 0.069159 76 0 153
-0.101659 0.005956 0.097566 76 0 153
0.410522 0.149121 0.206140 76 0 153
-0.219446 0.015993 0.034600 0 127 127
0.445093 -0.108431 -0.363106 76 0 153
-0.219447 0.031184 -0.112911 0 127 127
0.021478 0.149121 0.028005 76 0 153
0.155225 0.123480 -0.161602 76 0 153
0.067271 0.122265 0.302498 76 0 153
-0.154212 0.123481 -0.016659 76 0 153
0.219226 0.123480 0.177090 76 0 153
0.455580 0.123480 -0.180045 76 0 153
0.020948 0.149121 0.185708 76 0 153
-0.069573 0.017841 0.481987 127 0 127
0.399394 0.123480 -0.300157 76 0 153
-0.349788 0.105142 -0.381001 0 127 127
-0.245086 0.080538 -0.158628 0 127 127
0.083307 0.123480 -0.310103 76 0 153
0.085211 0.005956 0.015476 76 0 153
0.016648 0.149122 0.222595 76 0 153
-0.399229 -0.695693 0.311038 204 51 127
0.422358 0.040691 0.239981 153 0 76
0.199483 0.149121 -0.218227 76 0 153
-0.125872 0.014503 -0.093876 76 0 153
0.186914 0.133867 -0.458195 76 0 153
0.188895 0.123480 -0.071370 76 0 153
0.001778 0.108240 0.276857 76 0 153
-0.245086 0.070390 0.021705 0 127 127
-0.361185 0.149122 -0.011245 76 0 153
0.281977 0.123480 -0.140341 76 0 153
-0.411191 0.149122 -0.207201 76 0 153
-0.247223 0.009393 0.013631 0 0 255
0.278382 0.104246 0.116667 76 153 0
0.099381 0.005956 -0.014764 76 0 153
-0.261259 0.149122 0.159208 76 0 153
-0.219446 0.075908 -0.086663 0 127 127
-0.388675 0.123481 -0.229602 76 0 153
-0.375431 0.100761 -0.146006 76 153 0
0.166022 0.123480 -0.408159 76 0 153
-0.375430 -0.015399 0.017767 76 153 0
0.009895 0.123481 0.314328 76 0 153
0.267260 0.149121 -0.121395 76 0 153
0.308331 0.011151 0.029179 255 0 0
0.411178 -0.622165 -0.406921 76 0 153
0.436536 0.050472 -0.332716 153 0 76
-0.074696 0.123481 -0.232405 76 0 153
0.431160 -0.723033 0.272324 153 76 0
-0.038091 0.149122 0.139770 76 0 153
0.290042 0.111100 0.276858 76 0 153
0.137077 0.149121 -0.234927 76 0 153
-0.219445 0.091929 0.383467 0 127 127
-0.428744 0.123481 -0.249037 76 0 153
0.146048 0.014503 -0.055801 76 0 153
-0.349789 0.073245 -0.358130 153 0 76
0.275816 0.123480 -0.021660 76 0 153
-0.179114 0.014503 0.209594 76 0 153
0.307093 -0.021822 0.257817 255 0 0
0.153918 0.014503 0.107625 76 0 153
-0.102664 0.005956 0.112409 76 0 153
-0.160864 0.014503 0.035830 76 0 153
0.054484 0.123480 -0.315395 76 0 153
0.430308 -0.779465 -0.406921 76 0 153
0.072480 0.149121 -0.383556 76 0 153
-0.111103 0.036207 -0.167585 153 0 76
0.496368 0.141280 -0.166404 76 0 153
0.436536 0.096235 -0.281981 153 0 76
0.254913 0.089055 0.425309 76 153 0
-0.401071 0.057754 0.213806 76 153 0
-0.401072 0.057298 -0.191266 76 153 0
-0.219445 0.087720 -0.056622 0 127 127
0.254913 0.045765 -0.069299 76 153 0
0.164800 0.091495 -0.167586 153 0 76
0.271001 0.005956 -0.108849 76 153 0
0.415475 -0.019984 0.053434 153 0 76
-0.401072 0.081322 -0.248464 76 153 0
-0.338336 -0.009533 -0.398374 0 127 127
-0.205519 0.076281 0.456346 127 0 127
-0.024615 0.149122 -0.328927 76 0 153
-0.014876 0.149122 0.030023 76 0 153
0.224760 0.014503 0.229223 76 0 153
0.376362 0.149121 0.291654 76 0 153
0.410898 0.058211 -0.219977 153 0 76
0.150872 0.005956 0.186579 76 0 153
0.280554 0.089976 0.466094 76 153 0
-0.238739 0.149122 0.086484 76 0 153
0.031209 0.076801 -0.398377 0 127 127
0.293466 0.012366 0.016229 255 0 0
-0.409628 -0.156177 -0.383125 153 0 76
0.275349 0.149121 -0.044202 76 0 153
-0.349790 0.104314 0.293505 204 51 127
0.479800 0.123480 -0.319428 76 0 153
0.416354 0.123481 -0.298332 153 0 76
-0.037559 0.123481 0.216132 76 0 153
-0.036632 0.123481 0.194792 76 0 153
0.011628 0.020401 -0.141944 153 0 76
0.023872 0.149121 -0.173148 76 0 153
-0.242933 -0.021822 0.020412 0 0 255
-0.361354 -0.416922 -0.386601 153 0 76
-0.272864 -0.007847 -0.234833 0 0 255
-0.396415 0.105762 -0.406918 153 0 76
0.407279 -0.751184 0.298432 153 76 0
0.189419 0.149121 0.085572 76 0 153
0.181332 0.103692 0.481989 127 0 127
0.445116 -0.749996 0.287944 153 76 0
0.415482 0.149121 -0.451113 76 0 153
0.266412 0.003819 0.219112 255 0 0
0.073109 0.123480 -0.279517 76 0 153
-0.062030 0.123481 0.108703 76 0 153
0.071281 0.005956 -0.156179 153 0 76
0.317844 0.149121 0.086208 76 0 153
-0.213036 0.002370 0.034882 0 0 255
-0.152811 0.149122 -0.008531 76 0 153
0.430815 -0.047460 0.223886 153 0 76
-0.409629 -0.171583 0.279617 204 51 127
0.445105 -0.446417 -0.380351 76 0 153
-0.038478 0.123477 0.278998 76 0 153
-0.386371 -0.481430 0.311039 204 51 127
0.144619 0.023441 -0.372739 0 127 127
0.282690 -0.011370 0.228470 255 0 0
-0.250900 0.149122 0.004669 76 0 153
-0.192663 0.014503 0.383843 76 0 153
0.334475 -0.034307 0.302500 76 0 153
-0.179575 0.108853 0.302499 76 0 153
-0.390316 0.123481 0.159892 76 153 0
0.130334 0.123480 -0.143723 76 0 153
-0.311068 0.123481 0.101614 76 0 153
-0.219446 0.046389 0.161966 0 127 127
0.378638 0.123480 0.272155 76 0 153
0.440629 0.149121 -0.383795 76 0 153
-0.102480 0.149122 -0.141388 76 0 153
-0.245086 0.088237 0.071709 0 127 127
-0.123303 -0.018988 0.276857 76 0 153
-0.390257 -0.103278 -0.406919 153 0 76
0.148182 0.149121 0.340763 76 0 153
-0.144577 0.014503 0.163085 76 0 153
0.401615 -0.570176 -0.367094 76 0 153
0.055624 0.123480 -0.099461 76 0 153
0.444662 -0.661015 0.270386 153 76 0
0.073448 0.145054 0.357994 76 0 153
-0.213862 0.003819 -0.230260 0 0 255
0.144238 0.010614 0.464893 127 0 127
-0.099948 0.149122 -0.448316 76 0 153
0.223026 0.149121 -0.039262 76 0 153
-0.136832 0.123481 -0.271197 76 0 153
-0.290290 0.088190 -0.398375 0 127 127
0.087236 0.149121 -0.235584 76 0 153
0.442633 -0.377732 -0.406920 76 0 153
-0.298480 0.149122 -0.321440 76 0 153
-0.115064 0.003819 0.295411 76 0 153
0.069885 0.106383 0.288759 76 0 153
0.020484 0.123480 -0.359102 76 0 153
0.410894 0.044362 -0.004801 153 0 76
0.197885 0.149121 0.193397 76 0 153
0.445095 -0.164812 0.281238 153 76 0
0.130911 0.014503 0.398218 76 0 153
-0.364800 -0.226970 -0.406919 153 0 76
-0.245086 0.025747 0.478543 0 127 127
0.042239 0.014503 0.277464 76 0 153
0.472212 0.149121 0.280663 76 0 153
0.401879 0.145310 0.357373 76 0 153
0.060103 0.149121 -0.162817 76 0 153
0.263460 0.013979 0.395234 76 0 153
-0.397934 -0.047459 -0.332281 76 153 0
-0.398099 0.149122 -0.012933 76 0 153
0.445097 -0.208708 0.295153 153 76 0
0.268949 0.085557 0.507630 127 0 127
-0.097157 -0.015505 0.276857 76 0 153
0.009278 0.056666 0.508773 127 127 0
0.481325 0.123480 -0.171740 76 0 153
-0.399872 -0.676578 0.311038 204 51 127
0.412189 -0.248067 0.311042 153 76 0
-0.187455 0.014503 -0.113295 76 0 153
0.224021 0.123480 0.088882 76 0 153
-0.343212 0.149122 0.349489 76 0 153
0.224417 0.046045 0.467607 127 0 127
-0.219445 0.089880 0.170560 0 127 127
-0.005469 0.123481 0.315442 76 0 153
-0.256793 -0.021822 -0.340541 0 0 255
0.280553 0.067405 0.014433 76 153 0
0.049531 0.149121 -0.316756 76 0 153
0.360762 0.098511 -0.398379 0 127 127
0.254913 0.071765 0.106081 76 153 0
-0.145493 0.123481 -0.096362 76 0 153
0.428491 -0.011330 -0.406921 76 0 153
0.256382 -0.019213 0.276858 76 0 153
0.160394 0.123480 0.020073 76 0 153
0.431841 -0.515228 0.265830 153 76 0
-0.103928 0.005956 -0.015045 76 0 153
-0.375330 -0.610486 0.311039 204 51 127
-0.130596 0.149122 -0.162176 76 0 153
-0.185516 0.005956 0.165943 76 0 153
0.410895 0.110584 0.112104 153 0 76
-0.323393 0.149122 0.197761 76 0 153
0.202380 0.149121 -0.292959 76 0 153
0.484230 0.123480 0.159234 76 0 153
0.308331 -0.011676 0.178349 255 0 0
0.281001 0.123480 0.054280 76 0 153
-0.068881 0.149122 -0.357999 76 0 153
0.387162 -0.108213 0.270735 153 76 0
0.022359 0.014503 0.118309 76 0 153
-0.127495 0.005956 -0.006367 76 0 153
-0.401071 0.073915 -0.121828 76 153 0
0.191621 0.104246 0.470898 127 0 127
0.287745 0.149121 0.022895 76 0 153
0.193836 -0.022326 0.276857 76 0 153
-0.438821 0.149122 0.310747 76 0 153
0.385255 -0.021701 -0.385540 0 127 127
0.445093 -0.079774 0.310104 153 76 0
-0.247223 0.076899 0.282884 76 0 153
0.318092 -0.041539 -0.398379 0 127 127
0.265767 0.005956 0.279718 76 153 0
0.254914 0.019326 -0.079756 76 153 0
-0.148997 0.005956 0.099209 76 0 153
-0.260784 -0.021822 0.133579 0 0 255
0.205076 0.149121 -0.005930 76 0 153
0.436536 0.096194 -0.009055 153 0 76
0.353197 0.033756 0.277865 76 0 153
0.217171 0.123480 -0.087628 76 0 153
-0.247223 0.000024 -0.281260 0 0 255
0.484655 0.123480 0.190921 76 0 153
-0.406886 -0.537655 0.266528 204 51 127
0.404517 -0.662894 0.296636 153 76 0
-0.249484 -0.035107 0.302497 76 0 153
0.420841 -0.182340 0.311042 153 76 0
-0.375429 0.015491 0.238130 76 153 0
0.342046 0.149121 0.304681 76 0 153
0.401227 -0.557751 0.302930 153 76 0
0.392436 -0.276789 0.267268 153 76 0
-0.404980 0.149122 -0.160997 76 0 153
-0.197528 0.149122 -0.011895 76 0 153
-0.382357 -0.518054 -0.406919 153 0 76
-0.219446 0.055778 0.303820 0 127 127
-0.213037 -0.002565 -0.068138 0 0 255
-0.270778 0.086534 0.276860 76 0 153
-0.245086 0.090465 0.473395 0 127 127
-0.218695 0.005956 0.485582 127 0 127
0.203399 0.030538 0.456347 127 0 127
0.404409 -0.659448 -0.393173 76 0 153
0.112865 0.123480 0.303380 76 0 153
0.064333 0.123480 0.243502 76 0 153
0.436536 0.046726 0.144357 153 0 76
-0.245086 0.090443 0.006908 0 127 127
0.037174 0.123480 0.134620 76 0 153
0.491641 0.123480 0.248081 76 0 153
-0.431351 0.149122 0.326234 76 0 153
-0.375433 0.041747 -0.201956 76 153 0
0.215576 0.123480 -0.226036 76 0 153
-0.210346 0.014503 0.282740 76 0 153
-0.220396 0.104246 0.356202 0 127 127
0.390150 -0.203674 -0.392099 76 0 153
0.377143 -0.021773 0.302500 76 0 153
-0.366613 -0.585022 -0.381014 153 0 76
-0.048359 0.014503 0.294963 76 0 153
0.463347 0.123480 -0.264419 76 0 153
0.221139 0.005956 -0.082368 76 0 153
-0.175587 0.014503 0.386175 76 0 153
-0.386251 -0.150383 -0.406919 153 0 76
-0.245086 0.026010 0.375138 0 127 127
-0.219446 0.037126 0.072660 0 127 127
0.421639 -0.617086 0.311042 153 76 0
-0.387556 0.123481 0.079847 76 153 0
-0.226465 0.014503 0.307941 0 127 127
-0.169484 0.005956 0.423042 76 0 153
-0.018459 0.014503 -0.081007 76 0 153
0.204867 0.082159 0.459980 127 0 127
0.388641 -0.155469 0.291890 153 76 0
-0.399902 0.149122 -0.318118 76 0 153
-0.174661 0.014503 -0.099018 76 0 153
0.205909 0.014503 -0.030613 76 0 153
-0.094711 0.104246 -0.166380 153 0 76
0.436536 -0.003432 0.086245 153 0 76
0.094140 -0.015717 0.289735 76 0 153
0.389087 -0.169693 -0.402870 76 0 153
0.268899 0.104246 -0.092245 76 153 0
-0.245086 0.093175 0.298839 0 127 127
-0.201011 0.078545 -0.167585 153 0 76
0.254913 0.055967 -0.005211 76 153 0
0.436536 -0.028146 -0.260911 153 0 76
0.424155 -0.395509 0.262089 153 76 0
-0.349792 -0.012604 -0.363333 153 0 76
0.137359 0.005956 0.051531 76 0 153
-0.208116 0.078647 -0.154784 153 0 76
0.436536 0.112182 0.153843 153 0 76
0.282691 -0.021489 -0.178918 255 0 0
-0.375430 0.029249 0.093599 76 153 0
0.111081 0.149121 0.166406 76 0 153
-0.189556 0.005956 0.300957 76 0 153
-0.380108 0.099194 0.251210 204 51 127
-0.349791 0.097567 0.306615 204 51 127
-0.287544 0.149122 0.273825 76 0 153
0.094420 0.005956 -0.089367 76 0 153
-0.356727 0.149122 -0.110675 76 0 153
-0.460899 0.133058 -0.000551 76 0 153
-0.409617 0.104177 -0.347346 153 0 76
-0.272864 -0.012852 0.264697 0 0 255
-0.029173 0.005956 0.407528 76 0 153
0.436536 0.058282 -0.147281 153 0 76
-0.334024 0.097521 0.276856 76 0 153
0.191197 0.123480 -0.176388 76 0 153
0.097863 0.093509 0.507629 127 0 127
-0.156189 0.123481 0.270258 76 0 153
0.248503 -0.010896 -0.179982 255 0 0
-0.253046 0.123481 -0.315778 76 0 153
0.280552 0.094178 -0.105407 76 153 0
0.006802 0.123481 -0.315064 76 0 153
0.406091 -0.713221 0.290127 153 76 0
0.113378 0.123477 -0.380428 0 127 127
-0.176639 0.014503 0.127084 76 0 153
0.442000 -0.774077 -0.369798 76 0 153
-0.012441 0.019640 0.507629 127 0 127
-0.079082 0.014503 -0.065995 76 0 153
0.410894 0.018706 0.034534 153 0 76
0.409767 -0.404742 0.311042 153 76 0
-0.084252 0.123481 -0.445853 76 0 153
0.164384 0.123480 0.252048 76 0 153
-0.138739 0.005956 0.074369 76 0 153
0.217336 0.149121 -0.094128 76 0 153
-0.381137 -0.026987 0.098266 76 153 0
-0.289732 0.123481 0.249642 76 0 153
-0.385484 -0.598487 0.311039 204 51 127
-0.205268 0.123481 0.155294 76 0 153
-0.296437 0.015977 0.276860 76 0 153
0.177040 -0.015180 -0.372737 0 127 127
-0.397381 0.142167 0.362173 76 0 153
-0.382656 -0.047459 0.230168 76 153 0
-0.219446 0.065786 0.257465 0 127 127
0.354251 0.149121 0.203664 76 0 153
-0.409266 -0.111840 -0.349101 153 0 76
0.466799 0.149121 -0.030379 76 0 153
-0.073972 0.014503 0.276890 76 0 153
0.254912 0.090195 0.020412 76 153 0
-0.034193 0.061695 -0.167585 153 0 76
-0.309615 0.140067 -0.458199 76 0 153
0.410898 -0.031268 -0.304556 153 0 76
0.406348 -0.648800 -0.406921 76 0 153
0.229443 0.123480 -0.292472 76 0 153
0.324841 0.052184 -0.398379 0 127 127
0.346641 0.032014 -0.375039 0 127 127
0.130405 0.123480 -0.033344 76 0 153
0.445110 -0.559892 0.307843 153 76 0
-0.433690 0.123481 -0.194746 76 0 153
-0.401071 0.040616 0.153465 76 153 0
0.280554 0.009241 0.352717 76 153 0
0.047922 0.019524 0.507629 127 0 127
-0.084447 0.104245 0.500127 127 0 127
-0.133505 0.068092 0.481987 127 0 127
0.402951 -0.357338 -0.356776 76 0 153
0.331732 0.105476 -0.398379 0 127 127
0.445092 -0.069354 -0.378302 76 0 153
0.436536 0.071700 0.060921 153 0 76
-0.214265 0.014503 0.201927 76 0 153
0.283310 0.111952 -0.372737 0 127 127
0.410899 0.048426 -0.326428 153 0 76
0.084587 0.005956 -0.115604 76 0 153
0.254911 0.050242 -0.156791 153 0 76
0.209164 0.014503 0.137824 76 0 153
0.445098 -0.239081 -0.389076 76 0 153
-0.391790 -0.458413 0.311039 204 51 127
0.248503 -0.015459 -0.270596 255 0 0
-0.385146 -0.681066 -0.366890 153 0 76
0.193814 0.110949 0.276857 76 0 153
0.107320 0.014503 0.360355 76 0 153
0.280554 0.017690 0.404062 76 153 0
-0.180882 -0.010658 0.276860 76 0 153
0.223198 0.004588 -0.372738 0 127 127
-0.357268 -0.192624 -0.406920 153 0 76
0.194619 0.014503 0.287610 76 0 153
0.231986 0.123480 0.343538 76 0 153
-0.401072 0.113437 -0.209190 76 153 0
-0.086088 -0.017406 0.289856 76 0 153
0.392145 0.123480 -0.008374 76 0 153
0.260606 0.014503 -0.135637 76 0 153
-0.213458 -0.005587 0.204568 0 0 255
-0.047643 0.005956 0.456045 76 0 153
0.352210 0.149121 0.170048 76 0 153
0.376920 0.149121 0.115826 76 0 153
-0.409651 -0.761645 0.299173 204 51 127
-0.213037 -0.005914 -0.019223 0 0 255
0.308330 0.006355 -0.195622 255 0 0
0.315968 0.105867 -0.372738 0 127 127
0.444851 -0.355170 -0.406920 76 0 153
0.445113 -0.665042 -0.387019 76 0 153
-0.139837 0.005956 0.339743 76 0 153
0.216320 0.017549 0.481987 127 0 127
-0.247223 -0.003456 -0.247570 0 0 255
-0.147501 0.094736 0.481987 127 0 127
-0.244552 0.005956 0.419569 0 127 127
-0.308192 0.123481 -0.359102 76 0 153
-0.260942 -0.034757 0.276857 76 0 153
-0.216381 0.005956 -0.134906 76 0 153
-0.375430 0.101713 -0.117522 76 153 0
0.081056 0.003820 0.279602 76 0 153
0.419765 0.045560 -0.406921 76 0 153
0.280552 0.082819 -0.079402 76 153 0
-0.075053 0.123481 0.150821 76 0 153
0.427725 0.149121 0.045709 76 0 153
0.410895 0.103328 -0.257956 153 0 76
0.473931 0.149121 -0.000406 76 0 153
-0.375430 0.033314 -0.031939 76 153 0
0.058267 0.123480 0.043469 76 0 153
0.424300 -0.561853 -0.363166 76 0 153
-0.401071 -0.013509 -0.009141 76 153 0
-0.182769 0.005956 0.077850 76 0 153
0.445111 -0.634262 0.278048 153 76 0
-0.064386 0.123481 0.183939 76 0 153
0.404972 0.149121 -0.131311 76 0 153
-0.201956 0.028183 0.481987 127 0 127
0.234680 0.014503 0.374818 76 0 153
0.238635 0.109870 0.276858 76 0 153
0.248505 -0.003137 0.060422 255 0 0
-0.397677 -0.127155 -0.406918 153 0 76
-0.301749 0.135251 0.362321 76 0 153
0.400554 -0.536258 -0.378056 76 0 153
-0.116951 0.123481 -0.198334 76 0 153
-0.409640 -0.466546 0.297824 204 51 127
-0.409645 -0.646048 0.283747 204 51 127
-0.460896 0.141189 -0.358539 76 0 153
0.180751 0.149121 -0.131321 76 0 153
0.248503 0.000305 0.269866 255 0 0
-0.401071 0.115346 -0.048141 76 153 0
-0.132786 0.014503 0.036145 76 0 153
0.391007 -0.177332 0.311043 153 76 0
0.077670 -0.014779 -0.386369 0 127 127
-0.363522 0.123481 -0.252087 76 0 153
-0.218421 0.003819 -0.365270 0 0 255
0.422516 -0.037394 0.251213 153 76 0
-0.229959 -0.015903 0.276860 76 0 153
-0.384800 0.123481 -0.413680 76 0 153
0.388397 -0.147692 -0.354378 76 0 153
0.280554 0.025624 0.487883 127 0 127
-0.015675 0.123481 -0.404340 76 0 153
-0.131892 0.123481 0.353699 76 0 153
-0.329958 0.149122 0.225736 76 0 153
-0.185275 0.149122 0.113136 76 0 153
0.262425 0.149121 -0.055394 76 0 153
-0.427030 0.149122 0.066137 76 0 153
-0.375431 0.109298 -0.240795 76 153 0
0.260927 0.014503 0.368810 76 153 0
0.081396 0.005956 0.347008 76 0 153
-0.375430 0.058133 0.136975 76 153 0
0.445112 -0.634560 -0.381848 76 0 153
0.481577 0.149121 -0.288200 76 0 153
0.067449 0.149121 -0.052327 76 0 153
-0.378558 -0.845049 -0.372014 153 0 76
-0.245086 0.017445 0.428352 0 127 127
-0.168902 0.123481 0.123425 76 0 153
0.496365 0.125783 0.212157 76 0 153
0.308330 -0.007876 -0.140064 255 0 0
-0.409639 -0.441646 0.305267 204 51 127
0.274046 0.149121 -0.262721 76 0 153
-0.359349 -0.352823 -0.395467 153 0 76
-0.382640 0.044050 -0.406919 153 0 76
0.006502 0.022829 0.456346 127 0 127
0.061884 0.123480 0.022217 76 0 153
0.306558 0.012366 -0.181501 255 0 0
-0.337075 0.057915 -0.398374 0 127 127
-0.365695 0.123481 0.027519 76 0 153
0.438685 -0.799706 0.274720 153 76 0
-0.190259 0.023806 -0.167585 153 0 76
0.122639 0.112379 -0.372736 0 127 127
0.385255 -0.035179 0.284312 76 0 153
0.118551 0.014503 0.140507 76 0 153
0.485191 0.123480 -0.385985 76 0 153
-0.401072 0.112914 -0.289117 76 153 0
0.254913 0.045896 0.452576 76 153 0
0.315561 0.123480 0.222019 76 0 153
0.104291 -0.016295 -0.385606 0 127 127
0.141584 0.149121 -0.053114 76 0 153
-0.222881 0.149122 -0.253171 76 0 153
-0.293486 -0.047463 0.291089 76 0 153
-0.387984 0.123481 -0.071307 76 0 153
0.254869 0.135523 0.362320 76 0 153
-0.134517 0.123481 -0.313504 76 0 153
0.410895 0.044628 0.104645 153 0 76
0.262414 0.003819 0.084901 255 0 0
0.241185 0.149121 0.174600 76 0 153
-0.041191 0.014503 0.243301 76 0 153
-0.245086 0.085646 0.499798 127 0 127
-0.198286 -0.024094 -0.398377 0 127 127
-0.181715 0.040387 -0.152208 153 0 76
-0.320830 0.130613 0.362321 76 0 153
-0.304702 0.123481 0.062465 76 0 153
-0.319318 0.123481 0.197931 76 0 153
-0.347601 0.149122 -0.135968 76 0 153
0.386770 -0.095666 -0.360482 76 0 153
0.272791 0.149121 -0.027279 76 0 153
0.363065 0.123480 -0.387559 76 0 153
-0.460896 0.133595 -0.194976 76 0 153
0.042241 0.149121 -0.290838 76 0 153
-0.219446 0.041906 0.097129 0 127 127
-0.403531 0.149122 0.131230 76 0 153
0.104558 0.149121 -0.346664 76 0 153
-0.017960 0.123481 -0.141279 76 0 153
0.496369 0.132726 -0.340090 76 0 153
0.150545 0.018729 0.507629 127 0 127
0.428809 0.059416 0.251213 153 76 0
0.403383 -0.161698 0.311042 153 76 0
0.390410 -0.212003 -0.377887 76 0 153
0.436536 0.024382 -0.321352 153 0 76
0.409087 0.123480 0.063053 76 0 153
-0.249443 0.149122 -0.034867 76 0 153
0.237506 -0.013527 -0.372737 0 127 127
0.088515 0.149121 0.267515 76 0 153
-0.085541 0.123481 -0.123672 76 0 153
-0.078716 0.123481 -0.158373 76 0 153
-0.225943 -0.021822 -0.275006 0 0 255
-0.025754 0.018294 -0.141944 153 0 76
0.296921 0.088555 0.276858 76 0 153
0.410895 0.076525 -0.143055 153 0 76
0.059725 0.095946 0.481987 127 0 127
-0.229007 0.104246 0.205332 0 127 127
0.265381 0.008795 0.481988 76 153 0
0.074218 0.005956 0.231813 76 0 153
-0.201755 0.007373 0.464893 127 0 127
-0.104458 0.149122 0.314307 76 0 153
-0.018737 0.014503 -0.029123 76 0 153
0.035695 0.005956 0.436885 76 0 153
0.227530 0.057903 -0.372737 0 127 127
0.385258 0.073474 0.273519 153 76 0
0.106810 0.005956 0.455032 76 0 153
-0.125840 0.005956 0.236784 76 0 153
0.028892 0.123480 -0.105133 76 0 153
0.393100 0.149121 -0.225600 76 0 153
-0.363267 -0.024667 -0.347091 153 0 76
-0.205317 0.076255 -0.398375 0 127 127
-0.448088 0.123481 0.183862 76 0 153
-0.264245 0.149122 0.062185 76 0 153
0.013206 0.067306 0.481987 127 0 127
0.311918 0.096975 -0.398379 0 127 127
-0.324247 0.123481 0.007713 76 0 153
-0.136100 0.016238 0.481987 127 0 127
0.042880 0.008360 -0.372739 0 127 127
-0.381390 0.144865 0.358599 76 0 153
0.155650 0.104245 0.500879 127 0 127
-0.245086 0.077150 -0.124443 0 127 127
0.165245 0.005956 0.426773 76 0 153
0.357019 0.123480 0.280683 76 0 153
0.335364 0.123480 0.031835 76 0 153
0.297413 0.012366 0.122795 255 0 0
-0.168724 0.123481 -0.395487 76 0 153
-0.147473 0.034875 -0.398376 0 127 127
-0.292556 -0.015902 0.281695 76 0 153
0.062703 0.149121 0.300334 76 0 153
0.158715 0.014503 0.211015 76 0 153
0.386407 -0.084086 0.268962 153 76 0
-0.094913 0.104246 0.473565 127 0 127
0.102442 0.050802 -0.398377 0 127 127
0.175442 0.014503 -0.136987 76 0 153
0.239982 0.014503 0.009454 76 0 153
0.387538 -0.120203 0.295868 153 76 0
0.417617 -0.027380 0.100531 153 0 76
0.343784 0.149121 -0.118696 76 0 153
-0.354234 -0.189370 -0.380257 153 0 76
0.270710 0.104246 0.348275 76 153 0
0.375605 -0.020006 0.276859 76 0 153
-0.191603 0.123481 -0.422401 76 0 153
-0.370840 0.087678 -0.406919 153 0 76
0.184183 0.123480 -0.429320 76 0 153
0.406559 -0.504062 -0.406922 76 0 153
0.056277 0.005956 0.176526 76 0 153
0.442225 0.109696 -0.406920 76 0 153
0.445102 -0.352265 -0.381110 76 0 153
0.412405 -0.099487 -0.406922 76 0 153
0.080098 0.106539 -0.398377 0 127 127
-0.299410 0.075251 -0.398375 0 127 127
0.280553 0.015308 0.120068 76 153 0
0.313581 0.149121 -0.069573 76 0 153
-0.388591 0.123481 -0.265236 76 0 153
0.346454 0.146995 0.356344 76 0 153
-0.112880 0.149122 -0.403758 76 0 153
-0.359627 -0.361754 -0.372086 153 0 76
0.188005 0.149121 -0.400969 76 0 153
0.354368 0.037790 -0.398379 0 127 127
-0.008170 0.149122 -0.307727 76 0 153
0.445117 -0.771535 -0.386280 76 0 153
-0.112669 0.149122 0.343233 76 0 153
0.405896 -0.542929 -0.362576 76 0 153
-0.408227 -0.325056 -0.355764 153 0 76
0.445093 -0.126519 0.267117 153 76 0
-0.192564 0.014101 0.481987 127 0 127
-0.247223 0.003355 0.236083 0 0 255
0.282688 -0.008358 -0.252851 255 0 0
0.445088 0.058935 0.288559 153 76 0
0.410839 -0.232020 -0.352860 76 0 153
-0.061623 0.035483 -0.372739 0 127 127
-0.234949 0.005956 0.495257 127 0 127
-0.098570 0.005956 -0.072263 76 0 153
0.248504 -0.011891 -0.082297 255 0 0
0.102145 0.104246 -0.146125 153 0 76
-0.035519 0.014503 0.426719 76 0 153
0.463845 0.149121 -0.125165 76 0 153
0.228129 0.149121 0.003464 76 0 153
-0.262882 -0.021822 0.030997 0 0 255
0.206846 0.005956 0.251736 76 0 153
-0.035909 0.123481 -0.205697 76 0 153
-0.241611 -0.021822 0.180120 0 0 255
-0.139994 0.123481 -0.408648 76 0 153
-0.202463 0.003819 0.295608 76 0 153
-0.128959 0.014503 0.462455 76 0 153
-0.219446 0.059420 0.276297 0 127 127
-0.045831 0.123481 0.243137 76 0 153
-0.298896 0.149122 0.084643 76 0 153
-0.228223 -0.021822 -0.359889 0 0 255
0.254697 0.123477 0.281472 76 0 153
-0.247223 -0.000287 -0.054635 0 0 255
0.403825 -0.044552 -0.347092 76 0 153
0.374997 0.099691 -0.398379 0 127 127
0.198534 0.149121 0.332186 76 0 153
0.254913 0.085157 0.378750 76 153 0
0.053411 0.149121 -0.231333 76 0 153
-0.255526 0.149122 -0.153867 76 0 153
-0.155869 0.005956 0.371500 76 0 153
-0.300013 0.051149 0.276861 76 0 153
-0.401072 0.071709 -0.281767 76 153 0
-0.382413 -0.798207 0.274671 204 51 127
-0.144464 0.123477 -0.379711 0 127 127
-0.264448 0.123481 0.211821 76 0 153
0.053668 0.014503 0.309164 76 0 153
0.057776 0.123480 0.144633 76 0 153
0.410895 0.069118 0.108784 153 0 76
0.204743 0.005956 0.413511 76 0 153
0.138140 0.106383 0.285708 76 0 153
0.399366 -0.075953 0.311043 153 76 0
-0.255007 0.010018 0.276859 76 0 153
-0.309799 0.149122 0.127811 76 0 153
0.440196 -0.356095 0.311041 153 76 0
0.162519 0.123480 0.202290 76 0 153
0.410895 0.049475 0.159948 153 0 76
0.067734 0.023744 0.481987 127 0 127
0.279732 0.123480 0.037210 76 0 153
0.208533 0.032301 -0.372738 0 127 127
0.439473 -0.381519 0.261652 153 76 0
0.401112 -0.428074 -0.358987 76 0 153
0.282691 -0.001472 -0.130381 255 0 0
-0.049221 0.149122 0.173265 76 0 153
0.168488 0.059998 -0.141945 153 0 76
-0.337424 0.105132 -0.372735 0 127 127
0.301355 0.149121 -0.250997 76 0 153
-0.270608 0.012366 -0.006820 0 0 255
0.044528 0.149121 -0.167616 76 0 153
0.403942 0.123480 -0.235592 76 0 153
0.094441 0.149121 -0.119146 76 0 153
-0.192914 0.123481 -0.120619 76 0 153
-0.375433 0.013501 -0.195828 76 153 0
0.457881 0.123480 -0.226715 76 0 153
-0.219446 0.014788 0.183038 0 127 127
0.282691 -0.003831 0.114385 255 0 0
-0.454491 0.148615 -0.225407 76 0 153
0.445091 -0.065995 0.270225 153 76 0
0.308330 0.002207 -0.330464 255 0 0
-0.445503 0.123481 -0.127063 76 0 153
-0.024135 0.123481 0.005816 76 0 153
-0.417928 0.123481 -0.371083 76 0 153
0.348981 0.076409 -0.372738 0 127 127
-0.121870 -0.017868 -0.398377 0 127 127
0.230700 0.149121 -0.308394 76 0 153
-0.032332 0.149122 0.054951 76 0 153
0.046520 0.014503 0.091906 76 0 153
0.219652 0.123480 0.315525 76 0 153
-0.144545 0.149122 -0.340587 76 0 153
-0.272651 0.123481 -0.240917 76 0 153
0.356782 0.149121 0.311099 76 0 153
-0.288702 0.123481 -0.393598 76 0 153
-0.038024 0.014503 0.390669 76 0 153
-0.004537 0.014503 -0.016612 76 0 153
-0.377511 0.089618 -0.277179 76 153 0
-0.029062 0.005956 0.211847 76 0 153
0.395260 0.000944 -0.347093 76 0 153
-0.386861 -0.015648 -0.331295 76 153 0
0.439555 -0.669822 -0.406920 76 0 153
0.160875 0.005956 -0.129527 76 0 153
-0.409651 -0.829041 -0.380304 153 0 76
0.035908 0.034845 -0.141944 153 0 76
0.302935 -0.021822 -0.263375 255 0 0
-0.401071 0.027124 0.169263 76 153 0
-0.157487 0.062354 -0.167585 153 0 76
-0.456867 0.138303 -0.458200 76 0 153
0.439179 -0.097550 -0.406920 76 0 153
0.123105 0.149121 0.072143 76 0 153
-0.010143 0.100851 -0.398376 0 127 127
-0.435763 0.149122 -0.071330 76 0 153
0.429434 -0.282418 0.258555 153 76 0
0.026828 0.149121 -0.133723 76 0 153
0.185406 0.123480 -0.375154 76 0 153
-0.214153 -0.021822 -0.295528 0 0 255
0.471186 0.149121 -0.056289 76 0 153
0.292358 0.012366 -0.245556 255 0 0
0.496369 0.133306 -0.192235 76 0 153
-0.034329 0.123481 -0.372903 76 0 153
0.430280 0.123480 0.268500 76 0 153
-0.371685 0.123481 -0.182876 76 0 153
0.418853 0.123481 -0.053539 153 0 76
-0.247223 -0.011966 0.207982 0 0 255
0.374315 0.123480 -0.230982 76 0 153
-0.225919 0.014503 0.278269 76 0 153
-0.180607 0.123481 -0.254642 76 0 153
0.413673 0.021242 0.311042 153 76 0
0.432728 -0.639798 0.269723 153 76 0
-0.298394 0.114324 -0.372734 0 127 127
0.128828 0.149121 -0.346022 76 0 153
-0.043913 0.054053 -0.141944 153 0 76
0.439801 -0.231817 0.256973 153 76 0
0.087178 0.123480 -0.442446 76 0 153
0.308330 -0.007792 -0.236616 255 0 0
0.357384 0.123480 -0.339299 76 0 153
-0.071380 0.014503 0.459417 127 0 127
-0.070635 0.005956 0.259330 76 0 153
-0.401072 0.042717 -0.264814 76 153 0
-0.387492 -0.372553 -0.357249 153 0 76
-0.195688 0.097757 -0.141944 153 0 76
-0.376320 -0.134586 -0.349813 153 0 76
-0.006881 -0.005750 0.302499 76 0 153
0.006593 0.014503 -0.079765 76 0 153
0.214887 0.005956 0.188402 76 0 153
0.246976 0.006548 0.481987 127 0 127
-0.408323 -0.432141 -0.359110 153 0 76
0.184399 0.062330 -0.398378 0 127 127
0.410895 0.075845 0.239997 153 0 76
0.385258 0.057026 -0.356992 76 0 153
0.145686 0.014503 -0.102120 76 0 153
-0.245514 0.149122 0.073646 76 0 153
-0.356338 0.149122 0.221324 76 0 153
-0.349792 0.013124 -0.376025 153 0 76
-0.372576 -0.775581 0.298488 204 51 127
0.410895 0.056614 -0.108329 153 0 76
-0.027001 0.005956 0.023481 76 0 153
0.282689 -0.010399 -0.157093 255 0 0
-0.375430 0.084849 -0.130525 76 153 0
-0.357568 -0.249101 -0.353392 153 0 76
0.436536 -0.000943 -0.157565 153 0 76
0.028106 0.005956 0.003420 76 0 153
-0.314579 0.028916 0.276861 76 0 153
0.230056 0.149121 0.315057 76 0 153
-0.330101 0.028304 0.276859 76 0 153
-0.052027 0.005956 0.051635 76 0 153
0.038509 0.005956 0.039315 76 0 153
-0.349788 -0.016854 0.297396 76 0 153
-0.245086 0.064778 0.307824 0 127 127
0.411426 0.106167 -0.406922 76 0 153
0.185734 0.123480 -0.002177 76 0 153
0.430621 0.059822 -0.406921 76 0 153
-0.053050 0.123481 -0.226109 76 0 153
0.112992 0.005956 -0.002606 76 0 153
0.430222 -0.599367 -0.364339 76 0 153
0.098313 0.123480 -0.195488 76 0 153
-0.228726 0.003819 0.111659 0 0 255
-0.231946 0.149122 0.339060 76 0 153
-0.074988 -0.012949 -0.398377 0 127 127
-0.375430 0.078762 -0.083899 76 153 0
0.292003 -0.021822 0.151752 255 0 0
0.254913 0.085101 0.300189 76 153 0
-0.183421 0.123481 -0.201642 76 0 153
0.060725 0.005956 -0.053666 76 0 153
0.081905 0.084967 0.481988 127 0 127
0.166368 0.005956 -0.059354 76 0 153
-0.113308 -0.004409 0.276860 76 0 153
-0.218445 0.123481 0.007561 76 0 153
-0.245086 0.093572 0.447085 0 127 127
0.410895 0.103905 0.177097 153 0 76
-0.176724 0.149122 0.236909 76 0 153
0.280553 0.101614 0.253125 76 153 0
-0.079573 0.014503 -0.018765 76 0 153
-0.181327 0.149122 0.046261 76 0 153
0.385354 -0.050411 -0.363570 76 0 153
0.106293 0.023238 -0.141944 153 0 76
-0.264818 0.149122 -0.018086 76 0 153
-0.219445 0.039811 0.403931 0 127 127
-0.208876 0.005956 0.115164 76 0 153
-0.149854 0.014503 0.300202 76 0 153
0.196807 0.036496 -0.143055 153 0 76
-0.349788 -0.003251 -0.377475 0 127 127
0.280552 0.041944 -0.089828 76 153 0
-0.177726 0.123481 0.168237 76 0 153
0.273277 0.149121 -0.177334 76 0 153
-0.185979 0.005956 -0.022457 76 0 153
0.201604 0.149121 -0.028877 76 0 153
0.075469 0.089047 -0.141945 153 0 76
0.125284 0.014503 0.174166 76 0 153
0.445086 0.110113 0.291296 153 76 0
-0.245086 0.080967 0.216605 0 127 127
-0.143179 0.149122 0.103949 76 0 153
0.263222 -0.021822 0.173989 255 0 0
-0.409649 -0.703216 0.302660 204 51 127
-0.155111 0.021237 -0.141944 153 0 76
-0.219445 0.052796 0.391243 0 127 127
0.430989 0.030708 -0.406921 76 0 153
-0.223583 0.149122 -0.353229 76 0 153
-0.279382 0.149122 -0.051722 76 0 153
-0.020450 0.010147 -0.372739 0 127 127
-0.203816 0.123481 0.287389 76 0 153
0.410086 0.123479 -0.378715 76 0 153
0.282690 0.012323 0.182739 255 0 0
-0.359621 0.123479 0.310150 204 51 127
-0.018704 0.123481 -0.332417 76 0 153
0.346014 0.109546 0.276859 76 0 153
0.385261 -0.000308 0.307503 153 76 0
