ply
format ascii 1.0
element vertex 1279
property float x
property float y
property float z
property uchar red
property uchar green
property uchar blue
end_header
-0.079795 0.014503 0.323546 76 0 153
-0.261794 0.149122 -0.046364 76 0 153
-0.213037 -0.001799 -0.199739 0 0 255
-0.395685 -0.215129 -0.406918 153 0 76
0.101488 0.123480 -0.198310 76 0 153
0.254912 0.087755 -0.031693 76 153 0
0.388169 0.107080 0.311043 153 76 0
-0.008060 0.010633 0.464893 76 0 153
-0.357554 0.082511 -0.347091 153 0 76
-0.166842 0.104246 0.472146 127 0 127
-0.405027 -0.453530 0.263899 204 51 127
0.359786 0.123480 -0.327067 76 0 153
-0.409638 -0.455369 -0.378808 153 0 76
-0.383108 -0.333041 -0.356014 153 0 76
0.254913 0.061777 0.016842 76 153 0
0.014101 0.123480 -0.379553 0 127 127
-0.240970 0.123481 -0.438904 76 0 153
-0.393662 0.072251 0.251210 76 153 0
0.091685 0.123480 0.254450 76 0 153
0.410895 0.028290 -0.102942 153 0 76
-0.258439 -0.021822 -0.232502 0 0 255
-0.409646 -0.657866 0.287194 204 51 127
0.480647 0.123480 0.104372 76 0 153
0.263025 0.003819 -0.360352 255 0 0
0.266093 0.104246 0.397487 76 153 0
-0.208848 0.123481 -0.315110 76 0 153
0.446222 0.149121 -0.012097 76 0 153
0.002974 0.123480 -0.315600 76 0 153
0.125851 0.123480 -0.172830 76 0 153
-0.318460 0.123481 0.051531 76 0 153
0.445089 0.007546 0.298865 153 76 0
0.037892 0.005956 -0.096244 76 0 153
-0.031668 0.012951 -0.398377 0 127 127
-0.375430 0.109741 -0.024700 76 153 0
-0.387342 0.149122 0.056673 76 0 153
0.445103 -0.406139 -0.372710 76 0 153
-0.247224 -0.008619 -0.076071 0 0 255
0.410895 0.088439 0.100760 153 0 76
-0.257976 0.149122 -0.406563 76 0 153
0.371528 0.086845 0.288568 76 0 153
0.445089 0.027798 0.292385 153 76 0
-0.401071 0.069911 0.125652 76 153 0
-0.199447 0.104246 0.470554 127 0 127
-0.001263 0.051075 0.507628 127 0 127
-0.101983 -0.018918 0.290964 76 0 153
0.166886 0.094830 -0.372737 0 127 127
0.291223 0.012366 0.067498 255 0 0
0.189511 0.123480 0.024820 76 0 153
0.235187 0.123480 -0.410355 76 0 153
-0.159976 0.014503 0.065724 76 0 153
0.032472 0.149121 0.087313 76 0 153
0.171842 0.080144 -0.141945 153 0 76
0.445112 -0.599981 -0.402924 76 0 153
0.368008 0.149121 0.082818 76 0 153
-0.234309 0.123481 -0.294592 76 0 153
0.277490 0.005956 0.236946 76 153 0
-0.290618 0.107821 -0.372735 0 127 127
0.114226 0.149121 0.246935 76 0 153
0.048979 0.014503 -0.047161 76 0 153
0.063553 0.123480 -0.027916 76 0 153
-0.394599 -0.302996 -0.355075 153 0 76
0.308331 -0.002950 0.146907 255 0 0
-0.319966 0.059574 -0.372739 0 127 127
-0.446282 0.123481 -0.370677 76 0 153
-0.068006 0.014503 0.349017 76 0 153
0.063335 0.014503 0.460309 76 0 153
0.434684 0.149121 0.311944 76 0 153
-0.002378 0.014503 0.189775 76 0 153
0.079952 0.123480 -0.097241 76 0 153
0.159201 0.023576 0.481987 127 0 127
-0.398127 -0.328559 0.259994 204 51 127
-0.401071 0.008576 -0.098007 76 153 0
0.106130 0.014503 0.417048 76 0 153
-0.212381 0.149122 -0.170608 76 0 153
0.127951 0.123480 0.137968 76 0 153
-0.401072 0.094671 -0.276354 76 153 0
-0.199256 0.014503 -0.062595 76 0 153
-0.320165 0.149122 -0.239871 76 0 153
-0.384434 -0.297229 -0.406919 153 0 76
-0.085768 0.005956 0.360059 76 0 153
0.410895 0.100360 -0.261918 153 0 76
-0.409619 0.097275 0.289534 204 51 127
-0.117099 0.149122 -0.107158 76 0 153
-0.005184 0.108314 -0.372736 0 127 127
-0.400532 0.149122 0.330136 76 0 153
-0.066011 0.123480 -0.360242 76 0 153
0.493451 0.144525 -0.293798 76 0 153
0.399788 -0.024195 0.251213 153 76 0
-0.245086 0.073108 0.240780 0 127 127
0.254304 0.123480 -0.152404 76 0 153
-0.278154 0.045789 0.276860 76 0 153
-0.380178 0.149122 0.028618 76 0 153
-0.309840 0.123481 0.203853 76 0 153
0.226184 0.149121 0.262918 76 0 153
-0.245086 0.007286 0.288794 0 127 127
-0.219445 0.041710 0.325249 0 127 127
0.414323 -0.287752 0.311042 153 76 0
-0.401072 0.083184 -0.308955 76 153 0
-0.219446 0.062266 0.035478 0 127 127
0.147242 0.149121 0.108887 76 0 153
-0.375429 -0.027756 0.205389 76 153 0
-0.145537 0.123480 -0.314113 76 0 153
0.196193 0.149121 0.152247 76 0 153
0.261178 0.123480 0.048503 76 0 153
-0.247224 -0.015685 -0.144125 0 0 255
0.124708 0.106471 -0.372736 0 127 127
0.181639 0.027470 0.507629 127 0 127
-0.142505 0.123480 -0.374479 0 127 127
-0.038106 -0.014546 0.278219 76 0 153
0.436536 0.038220 -0.035039 153 0 76
0.282689 -0.002821 -0.172094 255 0 0
-0.375431 -0.013209 -0.121080 76 153 0
-0.340184 0.047810 0.276856 76 0 153
0.044770 0.149121 -0.104373 76 0 153
-0.319696 0.123481 -0.084432 76 0 153
-0.027750 0.149121 0.290452 76 0 153
0.078962 -0.014853 0.299010 76 0 153
0.266791 -0.021822 -0.322263 255 0 0
-0.441081 0.149122 -0.383202 76 0 153
-0.236107 0.149122 -0.412371 76 0 153
-0.048436 0.005956 0.159020 76 0 153
0.478428 0.149121 0.033224 76 0 153
-0.178789 0.075046 -0.151554 153 0 76
-0.153886 0.123480 -0.000451 76 0 153
0.203119 0.104246 0.469217 127 0 127
-0.114283 0.059923 -0.398376 0 127 127
-0.113928 0.149121 0.297596 76 0 153
-0.355296 -0.223298 -0.394584 153 0 76
-0.430514 0.123481 0.266363 76 0 153
-0.161218 0.123480 0.349773 76 0 153
-0.087866 0.149121 -0.277751 76 0 153
0.258911 0.123480 -0.311257 76 0 153
0.450657 0.123480 0.082542 76 0 153
0.412924 -0.030508 -0.211862 153 0 76
-0.226182 0.014503 -0.015256 0 127 127
0.155216 0.125805 -0.458195 76 0 153
0.445115 -0.746557 0.276639 153 76 0
0.353755 0.123480 -0.269291 76 0 153
-0.024481 0.123480 -0.007214 76 0 153
0.437408 0.123480 0.320073 76 0 153
-0.108570 0.014503 0.210873 76 0 153
0.413246 -0.013799 0.251213 153 76 0
0.254913 0.052708 0.040706 76 153 0
0.109271 0.104246 -0.161809 153 0 76
0.121341 0.149121 -0.322560 76 0 153
0.436547 -0.161682 -0.350661 76 0 153
-0.066732 0.149121 0.253623 76 0 153
0.280554 0.103181 0.486234 76 153 0
0.381512 0.139657 -0.458194 76 0 153
0.248504 -0.007567 -0.039207 255 0 0
-0.359247 -0.050708 0.311040 204 51 127
-0.401070 -0.031155 0.217058 76 153 0
0.337127 -0.044756 0.276859 76 0 153
-0.375429 -0.003879 0.196229 76 153 0
0.212730 0.149121 -0.059146 76 0 153
0.408647 -0.794927 0.295946 153 76 0
0.401801 -0.576088 -0.403535 76 0 153
0.445111 -0.845562 -0.406920 76 0 153
0.410900 0.056846 -0.317759 153 0 76
0.280553 0.037652 0.088067 76 153 0
0.436536 -0.018339 -0.334673 153 0 76
-0.081276 0.149121 -0.129347 76 0 153
0.445091 -0.081017 -0.360982 76 0 153
0.446007 0.149121 0.031276 76 0 153
0.484048 0.149121 0.073106 76 0 153
-0.046515 0.123480 -0.379554 76 0 153
0.060732 0.014503 0.180779 76 0 153
0.296821 -0.024169 0.302500 76 0 153
0.245468 0.149121 -0.292099 76 0 153
0.412262 -0.423854 0.262975 153 76 0
-0.375587 -0.014795 0.175383 76 153 0
-0.402779 0.149122 -0.309455 76 0 153
-0.370360 0.123481 -0.442222 76 0 153
0.084554 0.014503 0.326130 76 0 153
0.051952 0.005956 0.004828 76 0 153
-0.388246 0.036609 -0.332641 76 153 0
-0.046136 0.005956 0.469763 127 0 127
-0.375436 -0.018658 -0.278868 76 153 0
0.285065 -0.021822 0.138865 255 0 0
0.445100 -0.308890 -0.373290 76 0 153
0.254913 0.049862 0.294930 76 153 0
-0.390395 0.149122 -0.401632 76 0 153
0.005653 0.149121 0.137688 76 0 153
0.138149 0.107888 -0.398378 0 127 127
-0.093742 0.052477 0.507628 127 0 127
0.445098 -0.240112 0.280627 153 76 0
-0.337239 0.137845 0.362320 76 0 153
0.107894 0.149121 0.306349 76 0 153
-0.149712 0.014503 -0.107326 76 0 153
-0.236893 0.033301 -0.167586 0 127 127
0.078847 0.005956 -0.039110 76 0 153
-0.052027 0.149121 0.177813 76 0 153
0.373265 0.080091 -0.372738 0 127 127
-0.385910 0.123481 0.003474 76 153 0
-0.375431 0.085425 -0.183857 76 153 0
0.427080 -0.014224 -0.086796 153 0 76
0.436536 -0.005240 0.090019 153 0 76
0.443398 -0.679289 0.270956 153 76 0
-0.409636 -0.353865 0.291218 204 51 127
-0.375509 -0.010305 0.251208 204 51 127
-0.409622 -0.003327 0.255212 204 51 127
-0.190152 0.149122 -0.024241 76 0 153
0.219217 0.014503 0.366775 76 0 153
0.282691 -0.009368 -0.269803 255 0 0
0.240063 0.149121 -0.398605 76 0 153
-0.422984 0.149122 -0.242949 76 0 153
-0.176574 0.149122 0.286727 76 0 153
0.410896 -0.000022 -0.220604 153 0 76
0.328540 0.123480 0.080357 76 0 153
0.073188 0.123480 0.273776 76 0 153
0.423554 -0.015175 -0.318289 153 0 76
0.308330 -0.020056 -0.084494 255 0 0
0.302093 0.123480 0.344091 76 0 153
-0.394750 -0.114322 0.253299 204 51 127
-0.215811 0.019016 -0.398376 0 127 127
-0.010972 0.074238 -0.398377 0 127 127
-0.401071 0.012840 0.090538 76 153 0
0.014782 0.014503 0.053781 76 0 153
-0.175130 0.080443 0.481987 127 0 127
0.041473 0.049143 -0.141945 153 0 76
-0.375429 0.094904 0.238620 76 153 0
-0.114686 0.123480 0.215282 76 0 153
-0.393146 -0.535859 -0.406918 153 0 76
-0.444379 0.149122 -0.326594 76 0 153
0.149841 0.047363 0.456346 127 0 127
-0.360672 -0.395164 -0.367966 153 0 76
0.295143 -0.021822 0.208647 255 0 0
0.264601 -0.021822 -0.290615 255 0 0
-0.314395 0.082987 -0.377939 0 127 127
-0.375432 -0.005334 -0.243817 76 153 0
-0.089077 0.014145 0.464893 76 0 153
0.428924 -0.367784 0.261222 153 76 0
-0.285446 0.123481 0.310230 76 0 153
0.047518 0.076503 -0.372736 0 127 127
-0.114537 0.039173 0.507629 127 0 127
-0.228338 0.005956 0.038201 0 127 127
-0.019284 0.041691 -0.372739 0 127 127
0.184052 0.014503 0.152250 76 0 153
0.291918 -0.021822 -0.069940 255 0 0
-0.347173 0.149122 -0.162051 76 0 153
-0.028627 0.014503 0.432698 76 0 153
0.232330 0.123480 0.254249 76 0 153
0.185850 0.149121 0.284301 76 0 153
-0.170764 0.012497 -0.372740 0 127 127
0.310532 0.149121 0.101363 76 0 153
0.237696 0.040732 0.456347 127 0 127
-0.290315 0.149122 0.209102 76 0 153
0.412501 -0.544672 -0.362630 76 0 153
0.401512 0.123480 -0.009103 76 0 153
0.445104 -0.424698 0.274683 153 76 0
0.045119 0.001972 0.302499 76 0 153
0.370247 0.027226 0.276859 76 0 153
0.347469 0.123480 -0.369263 76 0 153
0.394399 0.010923 -0.406922 76 0 153
-0.417943 0.149122 -0.001382 76 0 153
-0.006018 0.014503 -0.100721 76 0 153
0.018458 0.020312 0.481987 127 0 127
-0.196554 0.123480 0.113394 76 0 153
-0.310508 0.149122 -0.437729 76 0 153
-0.119417 0.067729 0.456346 127 0 127
-0.306627 0.123481 -0.009416 76 0 153
0.339836 0.123480 0.002797 76 0 153
0.104514 0.005956 -0.040867 76 0 153
-0.387802 -0.029685 0.311039 204 51 127
-0.148946 0.139520 0.362319 76 0 153
0.475915 0.123480 0.029021 76 0 153
-0.269915 0.123481 0.110589 76 0 153
-0.370340 -0.205348 0.256145 204 51 127
0.436536 0.059049 -0.048459 153 0 76
-0.092089 0.005956 -0.067676 76 0 153
-0.245086 0.039923 0.387054 0 127 127
-0.327862 0.123481 -0.011253 76 0 153
0.248503 -0.021567 -0.274432 255 0 0
0.260555 0.149121 0.314240 76 0 153
0.445085 0.094421 -0.362806 76 0 153
0.405027 -0.086726 -0.406922 76 0 153
-0.352795 -0.143383 0.260793 204 51 127
0.156302 0.123480 -0.326341 76 0 153
0.091239 0.016993 -0.398377 0 127 127
-0.383368 -0.616819 -0.364882 153 0 76
0.410895 0.082700 0.043305 153 0 76
0.081719 0.005956 -0.136963 76 0 153
0.176273 0.123480 -0.019413 76 0 153
-0.290082 0.123481 0.246237 76 0 153
-0.245086 0.049803 0.422380 0 127 127
-0.126348 0.123480 0.307415 76 0 153
0.423276 0.123480 -0.307432 153 0 76
-0.066424 0.149121 -0.185834 76 0 153
0.075868 0.014503 0.198187 76 0 153
0.428474 -0.857001 0.276510 153 76 0
-0.059576 0.149121 0.136960 76 0 153
-0.116771 0.017455 -0.372739 0 127 127
-0.085085 0.123480 0.069569 76 0 153
0.387151 -0.107823 -0.396177 76 0 153
-0.219446 0.060309 -0.077329 0 127 127
-0.131074 0.149122 0.102216 76 0 153
-0.362156 -0.303070 0.311040 204 51 127
-0.245086 0.038940 0.266356 0 127 127
-0.140711 0.014503 0.022659 76 0 153
0.357127 0.149121 -0.168767 76 0 153
0.248447 0.149121 0.347173 76 0 153
0.159936 0.005956 -0.152555 153 0 76
0.205658 0.104246 -0.145964 153 0 76
-0.246363 0.149122 0.122102 76 0 153
0.308330 -0.004513 -0.321556 255 0 0
0.336855 0.123480 -0.167962 76 0 153
-0.256573 -0.021822 0.199486 0 0 255
-0.274486 -0.002284 -0.398376 0 127 127
0.436536 0.047864 0.026370 153 0 76
-0.245086 0.022282 0.405874 0 127 127
0.408348 -0.191384 -0.406922 76 0 153
-0.460896 0.128958 -0.404288 76 0 153
-0.203977 0.014503 -0.026178 76 0 153
0.407622 -0.762137 0.300639 153 76 0
-0.198382 0.144468 0.359507 76 0 153
0.402619 0.149121 -0.195573 76 0 153
-0.375430 -0.004519 0.062984 76 153 0
-0.219445 0.087444 0.060234 0 127 127
0.250320 -0.013989 -0.340860 255 0 0
0.228718 0.014503 -0.003257 76 0 153
-0.000529 0.123480 -0.168666 76 0 153
0.472923 0.149121 -0.119511 76 0 153
0.064208 0.149121 -0.351842 76 0 153
-0.183747 0.123480 -0.067244 76 0 153
-0.075384 0.005956 -0.057615 76 0 153
0.208628 0.005956 0.027178 76 0 153
0.406925 -0.089233 0.252518 153 76 0
-0.380999 -0.400271 -0.406919 153 0 76
-0.409618 0.072464 -0.347380 153 0 76
-0.127406 0.149122 -0.175958 76 0 153
-0.239950 0.123481 -0.031021 76 0 153
0.419067 -0.007145 0.224385 153 0 76
-0.213036 0.000610 0.211651 0 0 255
-0.110448 0.149121 0.159706 76 0 153
0.306694 0.149121 0.053762 76 0 153
0.445100 -0.286256 0.284051 153 76 0
0.402279 -0.591386 0.297193 153 76 0
0.412954 -0.045929 -0.406922 76 0 153
0.011565 0.041603 -0.141944 153 0 76
-0.264502 0.149122 -0.016005 76 0 153
-0.112541 0.005956 0.179371 76 0 153
0.408028 0.123480 0.178912 76 0 153
-0.230682 0.149122 -0.070612 76 0 153
-0.255790 0.123481 0.019329 76 0 153
0.385255 0.073012 -0.389942 76 0 153
-0.401070 0.023409 0.212349 76 153 0
0.265208 0.104246 0.237691 76 153 0
-0.350180 -0.059771 -0.385350 153 0 76
0.100078 0.014503 0.355706 76 0 153
-0.375430 0.001526 -0.000011 76 153 0
0.445098 -0.209813 0.305209 153 76 0
0.302572 0.109335 -0.372738 0 127 127
0.308331 -0.002151 0.110415 255 0 0
-0.219445 0.061288 0.422897 0 127 127
0.004545 0.014503 0.163116 76 0 153
0.280554 0.009540 0.390643 76 153 0
-0.183899 0.089705 -0.398376 0 127 127
-0.017738 0.016409 0.481987 127 0 127
0.344763 0.123480 0.202106 76 0 153
0.410896 0.062500 -0.337775 76 0 153
-0.130371 0.149121 -0.366895 76 0 153
-0.409637 -0.370809 0.307128 204 51 127
0.445095 -0.136955 0.308373 153 76 0
-0.383141 0.149122 -0.329006 76 0 153
0.410895 0.057128 0.024733 153 0 76
-0.270492 -0.045152 0.292460 76 0 153
0.238953 0.123480 -0.044057 76 0 153
0.176999 0.123477 -0.386867 0 127 127
0.332683 0.149121 0.219152 76 0 153
0.444305 -0.811348 -0.406920 76 0 153
-0.158314 0.149122 -0.388641 76 0 153
0.410895 0.060708 -0.013536 153 0 76
-0.066237 0.123480 -0.261533 76 0 153
0.131278 0.097815 0.456346 127 0 127
-0.226078 0.123481 0.352697 76 0 153
0.074014 0.014503 0.118015 76 0 153
-0.056333 0.099397 -0.167585 153 0 76
0.048409 0.005956 0.375390 76 0 153
-0.177877 0.005956 0.020434 76 0 153
0.094340 0.010037 -0.167585 153 0 76
0.241332 0.005956 0.461607 76 0 153
0.437678 0.123480 0.217175 76 0 153
0.074499 0.005956 0.098695 76 0 153
0.431538 0.123480 0.106713 153 0 76
0.215539 0.014503 -0.081092 76 0 153
0.388609 0.149121 -0.092162 76 0 153
0.414329 -0.222262 -0.406922 76 0 153
0.461222 0.149121 0.278921 76 0 153
-0.128453 0.014503 -0.040551 76 0 153
0.193529 0.054563 0.456347 127 0 127
-0.165306 0.123477 0.282211 76 0 153
0.087030 0.149121 -0.412247 76 0 153
0.044387 0.014503 -0.069423 76 0 153
-0.368269 -0.637950 -0.389160 153 0 76
0.198818 0.123480 0.347401 76 0 153
-0.066553 0.014503 0.235880 76 0 153
-0.334381 0.036631 -0.398375 0 127 127
0.428832 -0.765879 -0.369542 76 0 153
0.390573 0.149121 0.313382 76 0 153
0.265269 0.123480 0.233370 76 0 153
0.141937 0.123480 -0.315002 76 0 153
-0.345246 0.149122 0.072886 76 0 153
-0.011297 0.123480 0.174351 76 0 153
0.104322 0.014503 0.394027 76 0 153
-0.277440 0.123481 -0.027215 76 0 153
-0.138702 0.123480 0.319717 76 0 153
0.270354 0.104246 0.274750 76 153 0
0.445092 -0.081343 0.284943 153 76 0
0.445106 -0.458590 -0.383417 76 0 153
0.263460 0.009183 0.378923 76 0 153
0.449968 0.149121 -0.083832 76 0 153
0.320991 0.086806 -0.375728 0 127 127
-0.401072 0.099792 -0.091059 76 153 0
0.225691 0.014503 -0.029164 76 0 153
0.361258 0.149121 0.184698 76 0 153
-0.311067 0.149122 0.129702 76 0 153
-0.370226 -0.498016 0.311039 204 51 127
-0.013039 0.123480 -0.364107 76 0 153
-0.230360 0.078803 0.507628 127 0 127
0.326211 0.123480 -0.068461 76 0 153
0.168283 0.129125 0.362324 76 0 153
-0.409632 -0.248175 0.306118 204 51 127
0.288069 0.149121 -0.423844 76 0 153
0.308330 -0.002064 -0.274609 255 0 0
-0.282120 0.123481 0.086285 76 0 153
0.016868 0.149121 -0.154271 76 0 153
0.188894 0.030519 -0.372739 0 127 127
0.024493 0.051168 -0.167585 153 0 76
0.250441 -0.029911 -0.398378 0 127 127
-0.223089 0.003819 -0.114884 76 0 153
-0.409618 0.081685 0.251901 204 51 127
0.255180 0.149121 -0.024447 76 0 153
-0.057877 0.005956 -0.073661 76 0 153
0.405144 -0.682940 -0.396820 76 0 153
0.410895 0.035316 -0.049625 153 0 76
0.381770 0.123480 0.166716 76 0 153
-0.402999 0.149122 0.086939 76 0 153
0.361245 0.055086 -0.372738 0 127 127
-0.407205 -0.439297 -0.359334 153 0 76
0.043413 -0.011880 -0.372739 0 127 127
0.385255 0.019071 -0.387173 76 0 153
0.181754 0.149121 -0.115621 76 0 153
-0.231006 -0.018585 0.302498 76 0 153
-0.022085 0.123480 -0.159571 76 0 153
0.435704 -0.038615 -0.347092 76 0 153
-0.409647 -0.696924 0.290314 204 51 127
-0.027893 0.149121 -0.016889 76 0 153
0.410897 0.110357 -0.327035 153 0 76
0.411134 -0.161397 0.254773 153 76 0
-0.142601 0.046094 0.481987 127 0 127
-0.375430 0.058853 -0.033744 76 153 0
-0.164296 0.123480 0.217148 76 0 153
0.291699 0.012366 -0.319670 255 0 0
0.146308 0.005956 0.098555 76 0 153
-0.384295 -0.616947 0.311039 204 51 127
-0.395584 -0.757157 -0.369267 153 0 76
-0.276871 0.073216 0.302498 76 0 153
-0.113740 0.123480 0.196750 76 0 153
-0.118068 0.005956 0.026383 76 0 153
-0.313104 0.149122 0.222864 76 0 153
-0.318693 0.123481 0.349375 76 0 153
0.422691 0.149121 0.115716 76 0 153
0.496368 0.135670 -0.151744 76 0 153
-0.401070 -0.019957 0.237372 76 153 0
-0.365590 -0.112443 -0.406919 153 0 76
0.436536 0.108251 -0.073281 153 0 76
-0.403022 -0.563521 -0.363216 153 0 76
-0.107112 0.068527 -0.167585 153 0 76
-0.127172 0.005956 0.376617 76 0 153
-0.259317 -0.021822 0.137468 0 0 255
0.213208 0.014503 0.393407 76 0 153
-0.401071 0.025900 0.110976 76 153 0
-0.323579 0.149122 0.047596 76 0 153
0.031272 0.123480 -0.001306 76 0 153
0.000961 0.003819 0.289600 76 0 153
-0.045277 0.123480 0.145781 76 0 153
0.446895 0.123480 0.182939 76 0 153
-0.225806 0.094621 -0.167586 153 0 76
0.496369 0.125280 -0.399825 76 0 153
-0.258200 0.012366 0.178234 0 0 255
-0.245086 0.082358 0.494127 127 0 127
-0.375430 0.060169 0.032558 76 153 0
-0.284403 0.123481 -0.044894 76 0 153
0.224429 0.135153 0.362320 76 0 153
0.445112 -0.621234 -0.401032 76 0 153
-0.212736 0.149122 0.354837 76 0 153
-0.219445 0.086371 0.035502 0 127 127
-0.027935 0.014503 0.325510 76 0 153
0.353261 -0.009195 -0.383268 0 127 127
0.297250 -0.018655 0.276858 255 0 0
-0.359983 0.123481 -0.001548 76 0 153
-0.193745 0.123480 -0.038777 76 0 153
-0.219413 0.123481 -0.367557 76 0 153
0.280554 0.020432 0.407173 76 153 0
-0.156309 0.014503 -0.091982 76 0 153
-0.138795 0.123480 -0.297921 76 0 153
-0.230610 -0.021822 -0.111028 0 0 255
0.182670 0.024287 0.456346 127 0 127
0.005041 0.149121 0.276828 76 0 153
-0.400503 -0.047460 0.219099 76 153 0
0.247057 0.123480 -0.207780 76 0 153
0.463197 0.123480 -0.021043 76 0 153
0.485785 0.123480 -0.376997 76 0 153
0.441670 0.123480 -0.157766 76 0 153
0.410895 0.100738 -0.235728 153 0 76
0.172262 0.149121 -0.240975 76 0 153
0.283914 0.149121 0.199283 76 0 153
0.432828 -0.787255 -0.406921 76 0 153
0.265403 0.104246 0.126362 76 153 0
0.083045 0.123480 0.135902 76 0 153
0.226636 0.014503 0.070174 76 0 153
0.402540 -0.599732 0.282385 153 76 0
-0.399969 0.149122 -0.278376 76 0 153
0.280554 0.022687 0.505547 127 0 127
0.115128 0.088624 0.456347 127 0 127
0.071106 0.149121 -0.408443 76 0 153
-0.145657 0.076370 0.481987 127 0 127
0.088714 0.005956 0.373767 76 0 153
0.073247 0.149121 0.178937 76 0 153
-0.111874 0.079653 0.481987 127 0 127
-0.219443 0.063194 -0.148733 0 127 127
0.444621 -0.745172 0.311041 153 76 0
0.410895 0.041844 -0.079219 153 0 76
-0.219445 0.088542 0.446093 0 127 127
-0.244623 0.104245 0.503076 127 0 127
-0.166394 0.014503 0.273122 76 0 153
-0.189228 0.005956 0.177097 76 0 153
-0.226969 0.060988 -0.167586 0 127 127
0.089740 0.123477 0.292476 76 0 153
0.128540 0.089194 -0.141945 153 0 76
0.300047 0.149121 -0.363566 76 0 153
-0.254027 -0.021822 -0.051546 0 0 255
0.159307 0.115842 -0.398378 0 127 127
0.387328 0.123480 -0.191485 76 0 153
0.254913 0.066378 0.437394 76 153 0
-0.437061 0.123481 -0.220667 76 0 153
-0.213037 -0.019594 -0.161202 0 0 255
-0.231976 0.149122 0.257808 76 0 153
0.410896 0.007500 -0.172290 153 0 76
-0.195845 -0.011506 -0.372739 0 127 127
-0.327166 -0.018740 0.288470 76 0 153
-0.389791 -0.434548 -0.359186 153 0 76
-0.349790 0.100641 0.296239 204 51 127
0.258012 0.123480 -0.062946 76 0 153
0.304073 0.123480 -0.161206 76 0 153
-0.043109 0.019358 -0.141944 153 0 76
-0.409643 -0.585958 -0.377408 153 0 76
0.382415 0.123480 0.297387 76 0 153
-0.415331 0.123481 -0.212523 76 0 153
0.216530 0.149121 0.224933 76 0 153
-0.228357 -0.021822 0.171967 0 0 255
-0.102088 0.069616 -0.398376 0 127 127
-0.409626 -0.063827 0.301857 204 51 127
0.084634 0.149121 0.086547 76 0 153
-0.240106 0.149122 0.096828 76 0 153
-0.373350 0.149122 -0.435497 76 0 153
0.280553 0.080354 -0.080722 76 153 0
-0.282430 0.123481 -0.249566 76 0 153
-0.219446 0.074814 0.114819 0 127 127
-0.398183 -0.102636 -0.406918 153 0 76
0.280553 0.076741 -0.036865 76 153 0
-0.083455 0.123480 -0.303758 76 0 153
0.473703 0.123480 -0.318582 76 0 153
-0.051313 0.149121 0.109950 76 0 153
0.403877 -0.152989 0.311042 153 76 0
-0.052176 0.014503 0.390752 76 0 153
-0.409618 0.074786 -0.363956 153 0 76
0.280554 0.071692 0.228882 76 153 0
0.403380 -0.626585 -0.379303 76 0 153
-0.134908 0.005956 -0.022528 76 0 153
-0.383522 -0.047459 -0.329846 76 153 0
0.269475 -0.021822 0.150184 255 0 0
0.411356 -0.205140 -0.352020 76 0 153
0.308331 -0.005696 0.010632 255 0 0
0.410895 -0.016483 0.127992 153 0 76
0.211838 0.149121 -0.333296 76 0 153
-0.447568 0.149122 0.263272 76 0 153
-0.197850 0.005956 0.491995 127 0 127
0.119054 0.065054 -0.398378 0 127 127
0.155433 0.123480 0.089709 76 0 153
0.252753 0.005956 0.404607 76 0 153
-0.409636 -0.398065 -0.377712 153 0 76
-0.086571 0.005956 0.376151 76 0 153
0.247806 0.028653 0.481988 127 0 127
0.291569 0.108549 0.276858 76 0 153
-0.027309 0.078319 -0.141944 153 0 76
-0.444616 0.136958 0.362320 76 0 153
-0.375430 0.070198 -0.152064 76 153 0
0.483127 0.123480 0.285728 76 0 153
0.384279 0.123480 -0.413256 0 127 127
-0.058495 0.149121 0.346886 76 0 153
0.410898 -0.004729 -0.258731 153 0 76
0.303983 0.088838 -0.372738 0 127 127
0.470191 0.123480 -0.178066 76 0 153
-0.400022 -0.152084 0.254479 204 51 127
0.292698 0.149121 0.335314 76 0 153
-0.364440 -0.040441 -0.347090 153 0 76
-0.375430 0.091369 0.003819 76 153 0
-0.149952 0.149122 -0.337576 76 0 153
-0.445846 0.123481 0.014259 76 0 153
-0.088966 0.149121 0.248988 76 0 153
-0.208819 -0.029648 0.302498 76 0 153
0.014356 -0.002947 0.302498 76 0 153
0.232721 -0.010542 0.302498 76 0 153
0.260099 0.123480 0.119079 76 0 153
0.279854 0.086243 -0.398379 0 127 127
-0.056121 0.123480 0.060047 76 0 153
-0.258612 0.149122 0.249616 76 0 153
0.407702 -0.237085 -0.406922 76 0 153
-0.041050 0.088663 0.507629 127 0 127
-0.375430 0.095283 0.161896 76 153 0
0.193598 0.123480 -0.087375 76 0 153
-0.079730 0.123480 -0.179705 76 0 153
0.436536 0.009233 -0.139960 153 0 76
-0.229412 0.123481 0.100226 76 0 153
0.385259 0.025561 -0.369110 76 0 153
-0.035387 0.123480 -0.270106 76 0 153
0.123642 0.123480 -0.298340 76 0 153
-0.024379 0.089540 0.481988 127 0 127
0.242417 0.014503 0.380602 76 0 153
-0.373489 0.123481 -0.041241 76 153 0
0.424312 0.040517 -0.340662 76 0 153
-0.361375 0.123481 -0.216245 76 0 153
0.159127 0.149121 -0.290186 76 0 153
-0.349788 0.073326 0.296536 76 0 153
-0.430583 0.123481 -0.293758 76 0 153
-0.289359 0.075535 -0.372737 0 127 127
0.254913 0.081749 0.104766 76 153 0
0.445094 -0.137836 -0.379172 76 0 153
-0.227992 0.006180 0.342662 76 0 153
0.396246 -0.398550 0.273278 153 76 0
0.248504 -0.004068 0.108752 76 0 153
0.405598 0.070726 0.311042 153 76 0
0.093384 0.123480 -0.163847 76 0 153
0.408531 0.123480 0.128227 153 0 76
-0.004495 0.149121 -0.067957 76 0 153
0.436536 -0.020898 0.184482 153 0 76
0.182247 0.149121 -0.261173 76 0 153
-0.219445 0.089528 0.221358 0 127 127
-0.163542 -0.004749 -0.372740 0 127 127
-0.401071 0.063623 0.040135 76 153 0
-0.460900 0.126045 0.127289 76 0 153
-0.091800 0.014503 0.143041 76 0 153
-0.008287 0.123480 -0.115482 76 0 153
0.410900 0.007645 -0.309077 153 0 76
0.040352 0.149121 0.340328 76 0 153
0.344184 0.123480 0.244261 76 0 153
-0.338281 -0.017932 -0.398375 0 127 127
-0.306990 0.038165 0.286247 76 0 153
0.225760 0.005956 0.267516 76 0 153
0.280553 0.088614 -0.012916 76 153 0
-0.219446 0.049847 0.226047 0 127 127
-0.321184 0.091231 0.302496 76 0 153
-0.375430 0.067501 0.090401 76 153 0
-0.368075 -0.040695 -0.406919 153 0 76
0.110441 0.074298 0.507629 127 0 127
-0.416415 0.123481 0.004676 76 0 153
-0.334733 0.091162 -0.384896 0 127 127
-0.017007 0.005956 0.183020 76 0 153
-0.062107 0.133105 0.362322 76 0 153
-0.454882 0.146995 0.070856 76 0 153
-0.138416 0.023055 -0.141944 153 0 76
-0.061220 0.014503 0.259542 76 0 153
0.496365 0.128915 0.187256 76 0 153
-0.086124 0.149121 0.008261 76 0 153
-0.292693 0.149122 -0.372880 76 0 153
-0.029759 -0.012672 0.302498 76 0 153
0.261774 -0.021822 0.223118 255 0 0
-0.440370 0.149122 -0.298418 76 0 153
0.410895 0.104344 0.010420 153 0 76
0.416246 -0.078482 0.311042 153 76 0
-0.401070 -0.005140 0.205489 76 153 0
-0.235468 0.104246 0.307732 0 127 127
-0.401072 -0.040718 -0.340669 153 0 76
0.148960 0.003819 0.281241 76 0 153
0.079178 0.014503 -0.089709 76 0 153
-0.187801 0.149122 -0.000773 76 0 153
0.280553 0.040959 -0.023146 76 153 0
-0.299500 0.123481 -0.133740 76 0 153
-0.401071 0.086748 -0.063026 76 153 0
-0.401071 0.046993 0.038671 76 153 0
-0.363074 -0.471876 -0.399544 153 0 76
-0.390784 -0.361775 0.261032 204 51 127
-0.435315 0.144566 -0.455182 76 0 153
0.471425 0.149121 -0.169591 76 0 153
0.340398 0.123480 0.320500 76 0 153
0.252225 0.149121 0.220690 76 0 153
-0.245086 0.021339 -0.059799 0 127 127
-0.131817 0.123480 0.084384 76 0 153
-0.218116 0.123481 -0.186648 76 0 153
0.422767 -0.730004 -0.406921 76 0 153
0.038727 0.149121 0.139495 76 0 153
0.445103 -0.375480 -0.394168 76 0 153
0.013917 0.096970 0.507629 127 0 127
-0.124960 0.149122 -0.224517 76 0 153
-0.030789 0.123480 -0.413618 76 0 153
0.425023 0.149121 -0.406867 76 0 153
0.385260 -0.010909 -0.361435 76 0 153
0.410895 -0.014511 -0.186898 153 0 76
-0.259536 -0.007306 -0.372740 0 0 255
-0.174317 0.123480 0.026886 76 0 153
-0.432530 0.123481 -0.059125 76 0 153
0.130299 0.149121 0.304624 76 0 153
-0.355612 0.123481 0.033240 76 0 153
0.445105 -0.428413 0.305039 153 76 0
-0.155035 0.123480 -0.423656 76 0 153
-0.248818 0.123481 0.217862 76 0 153
0.327093 0.123480 0.201450 76 0 153
0.399533 0.123480 0.091884 76 0 153
-0.244315 0.005956 0.313441 0 127 127
0.009668 0.005956 0.076174 76 0 153
0.423695 -0.511675 0.311042 153 76 0
-0.346178 0.123481 0.137639 76 0 153
0.096684 0.005956 -0.014741 76 0 153
0.254913 0.046933 0.160463 76 153 0
-0.160504 0.149122 -0.071443 76 0 153
-0.401071 0.048556 -0.106017 76 153 0
0.280836 0.002387 -0.398379 0 127 127
0.410382 0.106952 -0.406922 76 0 153
0.441687 -0.413421 0.262648 153 76 0
0.315455 0.149121 -0.331002 76 0 153
-0.376122 -0.427720 -0.406919 153 0 76
0.090476 0.149121 -0.110287 76 0 153
-0.391676 -0.648556 -0.365874 153 0 76
0.254913 0.045997 0.376058 76 153 0
0.315065 0.149121 -0.203574 76 0 153
0.496367 0.133438 -0.065723 76 0 153
0.294261 0.044378 0.276858 76 0 153
-0.099124 -0.018646 -0.382498 0 127 127
-0.458957 0.123481 0.357776 76 0 153
-0.159546 0.014503 0.390290 76 0 153
-0.148851 0.123480 -0.144025 76 0 153
0.203233 0.149121 0.206641 76 0 153
-0.238176 0.005956 -0.112559 0 0 255
-0.307715 0.123481 -0.325360 76 0 153
0.248504 -0.015404 -0.130093 255 0 0
-0.375435 0.024877 -0.322777 76 153 0
-0.374882 -0.377221 -0.357395 153 0 76
-0.272864 -0.004242 0.068348 0 0 255
-0.131212 0.149122 0.163750 76 0 153
-0.362972 -0.468668 0.268761 204 51 127
0.307367 0.068014 0.302499 76 0 153
-0.365205 -0.359261 0.311040 204 51 127
-0.384724 0.123481 -0.303456 76 0 153
0.181261 0.005956 -0.155252 153 0 76
0.047425 0.005956 0.492973 127 0 127
-0.167440 0.069208 -0.167585 153 0 76
0.106686 0.149121 -0.166316 76 0 153
-0.248304 0.149122 -0.270734 76 0 153
0.416319 0.123481 -0.344487 76 0 153
0.369930 0.123480 -0.362111 76 0 153
-0.169160 0.123480 -0.254056 76 0 153
-0.049395 0.123480 -0.023201 76 0 153
0.436536 0.017427 -0.187465 153 0 76
-0.041874 0.014503 0.259016 76 0 153
-0.188288 0.123480 0.209861 76 0 153
0.345293 0.149121 0.161964 76 0 153
0.436536 0.018097 -0.246922 153 0 76
0.410895 0.011643 -0.065795 153 0 76
0.252108 0.149121 -0.422519 76 0 153
0.276271 -0.021822 -0.016261 255 0 0
0.045050 0.014503 0.434485 76 0 153
0.410895 0.068809 0.010666 153 0 76
-0.393726 0.123481 0.025917 76 0 153
0.085909 0.005956 0.131288 76 0 153
0.275662 -0.021822 -0.075710 255 0 0
-0.279899 0.149122 -0.291069 76 0 153
0.445109 -0.562914 -0.371117 76 0 153
-0.351245 0.149122 -0.264061 76 0 153
0.407468 0.149121 0.294823 76 0 153
0.412238 -0.511497 0.265714 153 76 0
-0.155916 0.022983 -0.372740 0 127 127
0.344128 0.123480 -0.091184 76 0 153
0.207247 0.149121 0.001150 76 0 153
0.248504 -0.006207 -0.063024 255 0 0
-0.232262 0.104246 0.027768 0 127 127
0.082394 0.011990 0.481987 127 0 127
-0.319867 0.073755 -0.398375 0 127 127
0.445104 -0.428598 -0.370658 76 0 153
-0.213037 -0.011530 -0.126384 0 0 255
0.445085 0.108456 0.272969 153 76 0
0.436536 0.047273 -0.090631 153 0 76
0.173845 -0.022594 -0.384556 0 127 127
-0.189475 -0.029681 -0.395919 0 127 127
-0.301144 0.149122 0.291531 76 0 153
-0.089772 0.005956 -0.039618 76 0 153
-0.080353 0.014503 0.212657 76 0 153
0.431034 -0.686433 0.311041 153 76 0
0.169623 0.044428 -0.141945 153 0 76
0.372538 0.123480 0.180280 76 0 153
-0.270211 0.112295 -0.372734 0 127 127
-0.065716 0.014503 0.276912 76 0 153
-0.401072 0.108462 -0.286220 76 153 0
0.154892 0.014503 0.013343 76 0 153
0.254913 0.016156 0.089338 76 153 0
-0.226712 0.104246 0.491016 127 0 127
-0.401071 -0.005694 0.025737 76 153 0
0.021503 0.014503 0.001171 76 0 153
-0.363996 0.149122 0.076904 76 0 153
0.410895 0.072138 0.132119 153 0 76
-0.146710 0.149122 -0.064331 76 0 153
-0.390989 -0.276465 0.258366 204 51 127
-0.122511 -0.020870 -0.384196 0 127 127
0.292268 0.149121 -0.175125 76 0 153
-0.388683 -0.047459 -0.285545 76 153 0
0.496365 0.138340 0.218068 76 0 153
0.420893 0.123480 -0.440448 76 0 153
0.069204 0.042198 0.481987 127 0 127
-0.232102 0.123481 -0.158078 76 0 153
0.058706 0.030056 -0.398377 0 127 127
0.412688 -0.804298 0.311041 153 76 0
-0.032354 0.123480 0.028358 76 0 153
0.254751 0.003819 -0.110274 76 0 153
-0.213695 0.083294 0.481987 0 127 127
0.365419 0.123480 -0.242124 76 0 153
-0.460901 0.138734 0.335019 76 0 153
0.216629 0.014503 0.294243 76 0 153
0.409880 -0.834303 -0.397647 76 0 153
-0.409625 -0.112157 -0.360786 153 0 76
-0.169440 0.123480 -0.003633 76 0 153
0.010602 0.049699 -0.398377 0 127 127
-0.263864 -0.021822 -0.282206 0 0 255
-0.372050 -0.751438 0.311039 204 51 127
-0.219446 0.024708 0.291450 76 0 153
0.272367 0.003819 0.047250 255 0 0
-0.402345 -0.808009 -0.406918 153 0 76
-0.272864 -0.000069 0.053475 0 0 255
-0.059263 0.149121 -0.010418 76 0 153
-0.231255 0.104246 0.413842 0 127 127
-0.460896 0.141816 -0.294803 76 0 153
-0.401072 0.105297 -0.206655 76 153 0
0.038956 0.014503 0.067283 76 0 153
0.395585 0.123480 -0.176793 76 0 153
0.178198 0.149121 -0.158164 76 0 153
-0.063867 0.005956 0.151963 76 0 153
-0.256815 0.012366 0.224321 0 0 255
-0.375435 0.003356 -0.262894 76 153 0
-0.177755 -0.011862 -0.372738 0 127 127
-0.121999 0.003819 0.288290 76 0 153
-0.215362 0.003819 0.003900 76 0 153
-0.227871 -0.021822 0.273555 76 0 153
-0.103701 0.014503 0.054900 76 0 153
-0.002344 0.149121 -0.268234 76 0 153
-0.429044 0.149122 -0.141841 76 0 153
-0.043300 0.014503 0.442687 76 0 153
-0.134374 0.104246 -0.155019 153 0 76
-0.343199 0.021553 0.276856 76 0 153
-0.394232 0.149122 -0.213419 76 0 153
-0.416027 0.123481 -0.180510 76 0 153
0.262108 0.058747 0.507629 127 0 127
-0.100563 -0.010454 0.276860 76 0 153
0.280554 0.064310 0.379438 76 153 0
-0.269762 0.012366 -0.191920 0 0 255
0.254914 0.020913 -0.109775 76 0 153
-0.140303 0.013907 -0.372740 0 127 127
-0.161517 0.005956 0.174659 76 0 153
0.308331 -0.007191 0.261248 255 0 0
0.388604 -0.154300 0.281921 153 76 0
0.280501 0.123480 0.236410 76 0 153
0.411747 -0.372718 -0.406922 76 0 153
0.254913 0.096792 0.455309 76 153 0
-0.325356 0.149122 -0.139974 76 0 153
0.276722 0.104246 -0.013425 76 153 0
-0.401071 0.103769 0.142354 76 153 0
-0.399057 -0.626572 -0.365186 153 0 76
-0.385270 0.043231 0.230308 76 153 0
-0.012284 0.149121 -0.159914 76 0 153
-0.460897 0.138607 -0.158930 76 0 153
0.157327 0.123480 -0.039482 76 0 153
-0.272864 -0.009145 0.191345 0 0 255
-0.231862 0.104246 0.449704 0 127 127
0.018715 0.149121 0.183016 76 0 153
-0.401072 0.022112 -0.236660 76 153 0
0.436536 0.052177 0.087304 153 0 76
-0.310103 0.149122 -0.165848 76 0 153
-0.071799 0.149121 0.079713 76 0 153
0.014968 0.149121 -0.097978 76 0 153
0.182616 0.005956 0.359761 76 0 153
-0.046599 0.014503 -0.023789 76 0 153
0.280554 0.066917 0.493179 127 0 127
-0.398198 -0.245627 -0.353282 153 0 76
-0.164425 0.005956 0.206248 76 0 153
-0.375429 0.014642 0.214170 76 153 0
0.129226 0.072941 0.481988 127 0 127
-0.093038 0.123480 -0.114555 76 0 153
-0.016142 0.104246 -0.162990 153 0 76
-0.199481 0.123480 -0.364096 76 0 153
0.436536 0.036554 -0.154369 153 0 76
-0.408127 0.149122 0.166155 76 0 153
0.436536 0.108035 0.028400 153 0 76
-0.369810 -0.157286 0.254643 204 51 127
0.248503 -0.020328 -0.147312 255 0 0
0.221805 0.123477 0.291568 76 0 153
-0.091205 0.123480 0.199547 76 0 153
-0.169686 0.149122 0.199487 76 0 153
0.210176 -0.015604 -0.372737 0 127 127
0.103989 0.088097 0.481988 127 0 127
0.028533 0.149121 0.253671 76 0 153
0.086907 0.049383 0.481987 127 0 127
-0.401072 0.109720 -0.267192 76 153 0
0.458112 0.149121 0.077790 76 0 153
-0.286772 -0.047463 -0.387324 0 127 127
-0.210795 0.014503 0.383129 76 0 153
0.436536 0.085715 0.091539 153 0 76
-0.254139 0.012366 -0.286024 0 0 255
0.436536 0.123263 0.243471 153 76 0
-0.446165 0.149122 0.122506 76 0 153
-0.361272 0.140078 0.362320 76 0 153
0.448865 0.123480 0.260460 153 76 0
-0.370554 -0.710950 0.297724 204 51 127
0.208597 0.149121 -0.112177 76 0 153
-0.394438 -0.218172 0.256544 204 51 127
0.001358 0.123480 0.022547 76 0 153
-0.248050 0.123481 -0.164129 76 0 153
0.438003 -0.498920 0.265320 153 76 0
0.199474 0.114845 -0.372737 0 127 127
-0.364931 0.105126 -0.347090 153 0 76
0.399869 -0.189228 0.311042 153 76 0
-0.299375 0.123481 0.100893 76 0 153
-0.443364 0.123481 0.094276 76 0 153
0.053024 0.123477 0.276979 76 0 153
0.400631 0.149121 0.010104 76 0 153
-0.033285 0.149121 0.152307 76 0 153
0.058099 0.123480 -0.437034 76 0 153
-0.147347 0.014503 0.178278 76 0 153
-0.375431 0.083780 -0.145093 76 153 0
-0.349794 -0.046018 -0.367913 0 127 127
-0.373876 -0.817145 0.302571 204 51 127
0.441518 0.149121 -0.436879 76 0 153
0.010283 0.149121 -0.018351 76 0 153
-0.334912 0.149122 -0.280803 76 0 153
-0.365208 -0.540125 -0.376252 153 0 76
-0.271437 0.135361 0.362321 76 0 153
0.238103 0.123480 -0.457840 76 0 153
-0.110981 0.005956 0.266123 76 0 153
-0.460898 0.141587 -0.010734 76 0 153
0.171995 0.123480 0.115188 76 0 153
-0.226038 0.104246 0.216269 0 127 127
0.270730 0.123480 -0.326525 76 0 153
0.224776 0.074242 -0.167586 153 0 76
0.453044 0.123480 0.028360 76 0 153
-0.157776 0.005956 0.498926 127 0 127
0.205308 0.047696 -0.146374 153 0 76
0.413696 0.123479 -0.394059 76 0 153
-0.057181 0.005956 0.424607 76 0 153
0.012906 0.059131 0.507630 127 127 0
-0.135174 0.006441 0.464893 127 0 127
-0.279618 0.149122 -0.173985 76 0 153
0.008210 0.029691 -0.372739 0 127 127
0.282689 -0.005153 -0.155218 255 0 0
0.138750 0.043559 -0.372739 0 127 127
-0.262323 0.149122 -0.290737 76 0 153
0.251064 0.123480 -0.182985 76 0 153
-0.364920 -0.521899 0.266037 204 51 127
0.277523 0.104246 0.178314 76 153 0
-0.353018 -0.150517 -0.368639 153 0 76
-0.060211 0.123480 -0.049273 76 0 153
-0.395988 0.123481 0.176527 76 0 153
0.135304 0.048853 0.481988 127 0 127
0.411753 -0.199364 0.255960 153 76 0
0.443261 -0.804916 0.311041 153 76 0
0.244769 0.014503 0.290772 76 153 0
0.307216 0.123480 -0.443056 76 0 153
-0.132974 0.044251 -0.372740 0 127 127
0.132932 0.149121 0.031935 76 0 153
-0.437222 0.149122 -0.270138 76 0 153
0.444442 -0.605746 0.311041 153 76 0
0.030971 0.123480 -0.349520 76 0 153
0.352160 0.123480 0.019599 76 0 153
0.481732 0.123480 -0.143324 76 0 153
-0.085658 0.149121 -0.340232 76 0 153
-0.014221 0.003819 0.278516 76 0 153
-0.409639 -0.452141 0.300785 204 51 127
0.436536 0.009241 0.071687 153 0 76
0.068104 0.014503 0.077316 76 0 153
-0.127598 0.040604 -0.398376 0 127 127
-0.324487 0.115021 0.276856 76 0 153
-0.091466 0.122692 -0.372735 0 127 127
-0.350798 -0.079501 -0.405215 153 0 76
0.280553 0.024040 -0.062501 76 153 0
0.043314 0.018179 -0.372739 0 127 127
-0.234501 -0.021822 0.088728 0 0 255
0.429306 0.022748 0.251208 153 0 76
0.430795 -0.566995 0.311041 153 76 0
-0.143351 0.104246 0.473217 127 0 127
-0.406497 -0.614872 -0.406918 153 0 76
0.437809 -0.593863 -0.364167 76 0 153
-0.113665 0.123480 -0.173290 76 0 153
-0.182163 0.149122 -0.379296 76 0 153
-0.366099 -0.100417 0.252866 204 51 127
0.363870 0.149121 0.068186 76 0 153
0.410895 0.023762 0.122045 153 0 76
0.040657 0.121165 0.302498 76 0 153
-0.294935 -0.027269 -0.372738 0 127 127
0.109663 0.097467 -0.398378 0 127 127
-0.029073 0.005956 0.059055 76 0 153
-0.032273 0.014503 0.286750 76 0 153
0.439541 0.149121 -0.365140 76 0 153
0.247066 0.123480 -0.348537 76 0 153
-0.070262 0.078857 0.507629 127 0 127
0.269611 0.038104 -0.398378 0 127 127
0.496366 0.127680 0.078354 76 0 153
-0.395365 -0.432785 -0.406918 153 0 76
0.445014 -0.291427 0.311041 153 76 0
-0.364815 0.123481 0.230598 76 0 153
-0.079606 0.086718 0.481988 127 0 127
-0.193249 0.149122 -0.140927 76 0 153
0.212437 0.014503 0.114769 76 0 153
0.469164 0.149121 -0.367706 76 0 153
0.035363 0.005956 0.131885 76 0 153
-0.127711 0.005956 0.191912 76 0 153
-0.116908 0.123480 -0.154692 76 0 153
-0.409632 -0.266540 -0.392287 153 0 76
-0.405616 0.059097 -0.406918 153 0 76
0.422094 -0.803882 0.274851 153 76 0
-0.401071 0.092787 0.237050 76 153 0
-0.141963 0.123480 0.037247 76 0 153
0.328529 0.123480 0.350960 76 0 153
-0.265356 0.149122 0.355762 76 0 153
-0.003460 0.123480 0.272611 76 0 153
-0.001798 0.000004 -0.372739 0 127 127
-0.400753 -0.199076 -0.351827 153 0 76
-0.410673 0.123481 -0.134996 76 0 153
0.161279 0.005956 0.315209 76 0 153
-0.263488 0.123481 0.053706 76 0 153
-0.370955 -0.120043 0.311040 204 51 127
-0.123811 -0.014780 -0.398377 0 127 127
-0.300562 0.149122 0.318614 76 0 153
0.300589 0.149121 -0.039049 76 0 153
0.406351 -0.721558 0.278134 153 76 0
-0.154906 0.089998 -0.372736 0 127 127
0.265607 0.123480 0.029706 76 0 153
0.260127 0.003819 -0.137967 255 0 0
-0.063530 0.038629 0.456346 127 0 127
-0.102644 0.149121 0.314460 76 0 153
-0.049546 0.014503 0.210561 76 0 153
-0.184838 0.025129 -0.372740 0 127 127
-0.460897 0.133700 -0.199986 76 0 153
0.410900 0.015411 -0.277886 153 0 76
0.028397 0.123480 -0.424098 76 0 153
-0.163809 0.135590 0.362322 76 0 153
0.068374 0.123480 0.139738 76 0 153
-0.087167 0.149121 -0.143953 76 0 153
0.208143 0.123480 0.080490 76 0 153
-0.402337 -0.039938 -0.406918 153 0 76
-0.227773 0.003819 -0.062680 0 0 255
0.194022 0.149121 -0.104505 76 0 153
0.410895 0.094494 -0.184036 153 0 76
-0.328145 0.123481 -0.144543 76 0 153
0.208499 0.005956 0.322046 76 0 153
0.210894 0.082705 0.507630 127 0 127
0.254913 0.037907 0.037433 76 153 0
-0.235469 -0.021822 -0.045878 0 0 255
0.300706 -0.044040 0.288446 76 0 153
-0.401012 0.046753 0.251208 204 51 127
0.299468 0.149121 0.230209 76 0 153
-0.035004 0.046457 0.507628 127 0 127
0.430535 0.123480 -0.370152 76 0 153
-0.176823 0.005956 -0.108693 76 0 153
0.367644 0.123480 -0.013481 76 0 153
-0.373220 -0.796189 -0.384998 153 0 76
-0.089798 0.005956 -0.014505 76 0 153
0.295598 0.149121 -0.343774 76 0 153
0.457746 0.149121 0.342479 76 0 153
-0.386990 -0.702874 -0.367571 153 0 76
-0.275911 -0.045914 -0.398377 0 127 127
0.196130 0.123480 -0.205901 76 0 153
0.114295 0.149121 0.086049 76 0 153
-0.397986 0.123481 0.272636 204 51 127
-0.131130 0.149122 -0.250077 76 0 153
-0.177167 0.149122 -0.323156 76 0 153
-0.380231 0.123481 -0.175401 76 153 0
-0.389659 0.089335 -0.347088 76 153 0
0.401814 -0.576552 0.268998 153 76 0
0.428487 0.067728 0.251208 153 76 0
-0.349791 0.036001 0.265184 204 51 127
-0.131349 0.053007 -0.167585 153 0 76
0.256705 0.149121 -0.326413 76 0 153
-0.050079 -0.015228 -0.373624 0 127 127
-0.359248 0.123481 -0.412164 76 0 153
0.152597 0.149121 0.346646 76 0 153
-0.409629 -0.159799 0.292361 204 51 127
-0.012901 0.005956 -0.126807 76 0 153
0.279845 0.123480 -0.206980 76 0 153
-0.254061 0.123481 0.248595 76 0 153
-0.099978 0.014503 0.339144 76 0 153
-0.247503 0.123481 0.185461 76 0 153
0.096767 0.005956 0.425307 76 0 153
0.220252 0.039820 -0.152874 153 0 76
0.166912 0.065138 -0.141945 153 0 76
-0.019328 0.017977 0.456346 76 0 153
-0.011816 0.123480 0.297076 76 0 153
0.194429 0.149121 -0.203952 76 0 153
0.172527 0.104246 0.460311 127 0 127
0.002777 0.014503 0.096757 76 0 153
0.280554 0.078344 0.314405 76 153 0
-0.259327 0.149122 -0.318397 76 0 153
-0.262109 -0.021822 0.218738 0 0 255
-0.107277 0.005956 0.392713 76 0 153
0.070274 -0.014358 -0.393106 0 127 127
0.371920 0.149121 0.151350 76 0 153
0.255156 -0.021822 0.030072 255 0 0
0.346805 0.123480 -0.419063 76 0 153
-0.173572 0.123477 0.301953 76 0 153
-0.118390 -0.020478 0.301820 76 0 153
0.436536 0.071724 0.041753 153 0 76
-0.373448 -0.316686 0.311040 204 51 127
0.140433 0.123480 0.116793 76 0 153
-0.213037 -0.014977 -0.066848 0 0 255
-0.132281 0.123480 0.065003 76 0 153
0.293202 0.012366 -0.111245 255 0 0
0.330139 0.149121 -0.307054 76 0 153
-0.379302 -0.514014 0.265790 204 51 127
-0.245086 0.026881 0.230950 0 127 127
-0.387586 -0.027521 0.101342 76 153 0
-0.017754 0.149121 0.118414 76 0 153
0.308331 -0.001218 0.185089 255 0 0
-0.062525 0.149121 -0.325934 76 0 153
0.129525 0.005956 0.125587 76 0 153
-0.202599 0.043829 -0.149429 153 0 76
-0.257670 -0.021822 -0.360215 0 0 255
0.432083 -0.724488 -0.368249 76 0 153
-0.307849 0.149122 0.081690 76 0 153
-0.242221 -0.039167 0.297982 76 0 153
-0.149422 -0.024068 -0.387371 0 127 127
-0.060875 0.149121 -0.420830 76 0 153
0.436536 0.120282 -0.329166 153 0 76
-0.208876 0.064126 -0.398375 0 127 127
-0.401072 0.050312 -0.244268 76 153 0
-0.375431 0.115887 -0.102859 76 153 0
-0.405806 0.149122 0.028165 76 0 153
-0.092551 0.003819 0.300846 76 0 153
0.419658 0.149121 0.218415 76 0 153
0.067576 0.126212 0.362323 76 0 153
0.436536 -0.006774 0.229990 153 0 76
-0.243002 -0.021822 0.073449 0 0 255
0.423764 0.123479 0.271538 76 0 153
-0.190489 0.123480 0.062590 76 0 153
0.092902 0.123480 -0.089493 76 0 153
0.439236 -0.069256 0.251893 153 76 0
0.147809 0.014503 -0.085221 76 0 153
0.141353 0.042244 -0.141944 153 0 76
0.230529 0.005956 0.340935 76 0 153
-0.039906 0.123480 0.061667 76 0 153
0.229446 0.014503 0.446600 76 0 153
-0.375434 0.067535 -0.227614 76 153 0
0.015825 0.123480 0.243106 76 0 153
-0.401071 -0.003308 -0.126475 76 153 0
-0.213037 -0.001472 -0.252870 0 0 255
0.109273 0.123480 0.299785 76 0 153
0.413966 0.123481 -0.138102 153 0 76
0.410895 0.108644 -0.041317 153 0 76
0.025246 0.005956 0.098806 76 0 153
0.445118 -0.812513 0.281912 153 76 0
-0.409633 -0.355705 -0.356746 153 0 76
0.280553 0.014988 0.171968 255 0 0
0.399350 0.149121 -0.439979 76 0 153
-0.253918 0.123481 -0.135024 76 0 153
0.155434 0.011248 -0.372739 0 127 127
0.445118 -0.828602 -0.378315 76 0 153
-0.359218 0.149122 -0.329213 76 0 153
0.410895 0.056061 0.192388 153 0 76
0.122487 0.005956 0.078491 76 0 153
0.280553 0.081153 0.109630 76 153 0
0.076520 0.149121 -0.327748 76 0 153
-0.160587 0.014503 0.158114 76 0 153
0.061998 0.149121 0.157922 76 0 153
-0.272864 -0.000885 0.115547 0 0 255
-0.401072 0.059458 -0.342491 76 153 0
-0.074548 0.087034 0.456346 127 0 127
0.148967 0.014503 -0.007541 76 0 153
0.254913 0.037136 -0.068462 76 153 0
0.186910 0.105411 -0.398378 0 127 127
-0.164093 0.104246 0.495001 127 0 127
0.028806 0.113619 -0.372736 0 127 127
0.436624 -0.401219 -0.358147 76 0 153
0.103063 0.149121 0.030763 76 0 153
0.436536 0.057699 -0.224245 153 0 76
0.308189 0.149121 -0.303877 76 0 153
-0.109079 0.013471 0.481987 127 0 127
0.181952 0.149121 0.091445 76 0 153
0.387118 -0.106769 0.295903 153 76 0
0.004569 0.005956 0.393013 76 0 153
-0.124945 0.005956 0.119915 76 0 153
-0.111890 0.027734 0.456346 127 0 127
-0.375429 -0.019740 0.130355 76 153 0
0.423570 0.035086 -0.319409 153 0 76
0.390618 0.046182 -0.347093 76 0 153
-0.364604 -0.520787 0.297569 204 51 127
0.418694 -0.012883 0.202728 153 0 76
0.057306 0.025944 -0.141944 153 0 76
0.417224 -0.013859 -0.071881 153 0 76
-0.207031 0.123481 -0.093923 76 0 153
-0.239904 0.149122 0.059954 76 0 153
-0.154134 0.082640 0.507628 127 0 127
0.415649 -0.820175 -0.371240 76 0 153
0.418576 0.149121 0.278587 76 0 153
-0.367183 0.149122 -0.304137 76 0 153
0.101253 0.123480 0.349610 76 0 153
-0.375430 0.019400 0.022614 76 153 0
0.445115 -0.766252 -0.370536 76 0 153
-0.396457 -0.447032 0.311039 204 51 127
0.399898 -0.515277 0.300371 153 76 0
0.309435 -0.017329 -0.398379 0 127 127
-0.203968 0.149122 0.161872 76 0 153
-0.244476 0.149122 0.236208 76 0 153
-0.378944 -0.121879 -0.349415 153 0 76
-0.219446 0.022985 0.054551 0 127 127
0.280553 0.014461 0.024532 76 153 0
0.311809 0.123480 0.047246 76 0 153
0.092841 0.040706 -0.167585 153 0 76
0.354988 0.149121 -0.117493 76 0 153
0.016300 0.014503 0.244506 76 0 153
0.271718 0.003819 -0.246614 255 0 0
-0.197721 0.005956 0.265555 76 0 153
-0.213037 -0.012794 0.077649 0 0 255
-0.044802 0.123480 -0.222418 76 0 153
-0.175167 0.086208 0.456346 127 0 127
0.342824 0.028140 0.302500 76 0 153
-0.387677 -0.386758 0.311039 204 51 127
-0.445054 0.123481 -0.285584 76 0 153
0.410895 0.118853 0.220897 76 0 153
0.059098 0.014503 0.134357 76 0 153
0.344991 0.123480 -0.130936 76 0 153
-0.093852 0.149121 0.135694 76 0 153
-0.352007 0.013394 0.251211 204 51 127
0.190806 0.123480 -0.029033 76 0 153
-0.297488 0.123477 0.285096 76 0 153
-0.245086 0.044265 0.101772 0 127 127
-0.327959 -0.044463 -0.372734 0 127 127
-0.373690 -0.695992 0.271477 204 51 127
-0.365286 -0.143548 -0.350093 153 0 76
-0.355314 0.149122 -0.392719 76 0 153
0.021135 0.102703 0.481987 127 0 127
0.113881 0.123480 -0.106559 76 0 153
-0.230319 0.123481 0.328152 76 0 153
-0.272864 -0.020730 -0.050977 0 0 255
-0.348350 0.149122 -0.044507 76 0 153
-0.292263 0.149122 -0.034600 76 0 153
-0.396291 -0.639714 0.269718 204 51 127
-0.041967 0.123480 0.297053 76 0 153
0.436536 0.063349 -0.158983 153 0 76
0.265860 0.104246 0.086034 76 153 0
0.083652 0.123480 0.008009 76 0 153
-0.015578 0.005956 0.114464 76 0 153
0.151879 0.149121 -0.060869 76 0 153
-0.213036 -0.020633 -0.048709 0 0 255
0.345551 0.123480 0.051714 76 0 153
-0.192457 0.149122 0.188714 76 0 153
0.280554 0.035010 0.454243 76 153 0
0.307717 -0.021822 0.171906 255 0 0
0.383777 0.123480 0.215056 76 0 153
0.061904 0.149121 -0.178573 76 0 153
0.405523 -0.695078 0.286430 153 76 0
-0.399326 0.149122 -0.371914 76 0 153
0.250180 0.014503 0.171893 76 0 153
-0.409652 -0.838256 0.288238 204 51 127
0.385260 0.023137 0.306472 153 76 0
-0.193059 0.005956 -0.144867 153 0 76
-0.011402 0.104246 -0.148767 153 0 76
-0.208317 0.014503 0.200306 76 0 153
0.302998 0.020217 -0.398379 0 127 127
-0.419975 0.149122 0.138348 76 0 153
-0.128648 0.123480 -0.336677 76 0 153
-0.399117 0.149122 -0.150087 76 0 153
0.307153 -0.021822 0.070284 255 0 0
0.312505 -0.002311 -0.398379 0 127 127
-0.447499 0.123481 0.179349 76 0 153
0.370604 -0.022330 0.302500 76 0 153
-0.432193 0.149122 -0.228617 76 0 153
0.395506 -0.374912 -0.371080 76 0 153
-0.369875 -0.401767 -0.358162 153 0 76
-0.341540 0.123481 0.343323 76 0 153
-0.447013 0.149122 -0.164279 76 0 153
0.409951 -0.323878 0.311042 153 76 0
-0.393091 -0.665774 0.311039 204 51 127
-0.182066 0.104246 0.467766 127 0 127
-0.057716 0.149121 -0.365694 76 0 153
0.280554 0.076638 0.440089 76 153 0
