ply
format ascii 1.0
element vertex 1268
property float x
property float y
property float z
property uchar red
property uchar green
property uchar blue
end_header
-0.296151 0.881145 -0.001401 153 0 76
-0.037068 0.578541 0.022914 153 0 76
0.099926 0.861924 0.079644 153 0 76
0.459898 -0.852006 -0.047212 76 0 153
0.416695 0.597763 -0.068836 153 0 76
-0.155721 -0.001439 -0.130122 0 127 127
0.430799 0.861924 0.036319 153 0 76
-0.236304 -0.862400 -0.040979 76 0 153
0.423752 -0.352986 0.224067 0 127 127
-0.074935 -0.843179 -0.099859 76 0 153
0.430850 0.821564 -0.233642 255 0 0
-0.223943 0.378772 0.224067 204 51 127
0.450717 0.001353 0.209651 0 127 127
-0.114536 -0.457491 -0.214421 0 255 0
-0.091066 -0.636461 0.224067 127 127 0
-0.053089 -0.449401 0.224067 127 127 0
-0.213368 0.665167 0.224067 204 51 127
-0.298078 -0.732002 0.209651 127 127 0
-0.433896 -0.152230 -0.119185 153 0 76
-0.336695 0.314380 -0.030295 76 153 0
0.299407 -0.791376 -0.233642 204 51 127
0.313089 -0.386056 -0.219226 0 255 0
-0.364693 -0.557393 -0.123362 127 127 0
-0.197652 0.311435 0.203644 76 153 0
-0.397297 0.181857 0.209651 204 51 127
0.459898 -0.129301 -0.055158 76 0 153
-0.027453 -0.843179 0.119980 76 0 153
-0.448312 -0.776994 0.126763 153 0 76
-0.164998 0.597763 0.152871 153 0 76
0.377938 -0.843179 0.042630 76 0 153
-0.187611 0.881145 -0.131275 153 0 76
0.443303 -0.716352 -0.219226 0 255 0
0.142177 -0.576614 0.023804 127 127 0
0.299500 0.881145 0.013013 153 0 76
-0.448312 0.268846 0.052425 153 0 76
0.230228 0.597763 -0.038417 153 0 76
0.474314 0.177830 -0.207735 76 0 153
0.407833 0.806599 -0.214421 0 255 0
0.205266 0.295158 0.102113 76 153 0
-0.433896 0.096853 -0.163477 153 0 76
-0.036735 -0.654891 0.209651 127 127 0
-0.201538 -0.274010 0.095361 127 0 127
0.005694 0.854936 0.224067 204 51 127
0.243659 0.314380 -0.013685 76 153 0
0.104247 0.597763 -0.042766 153 0 76
0.277261 0.597763 0.060235 153 0 76
0.392314 -0.557393 0.091529 127 127 0
-0.226667 -0.274010 -0.083044 127 0 127
-0.289584 -0.001439 -0.117950 0 127 127
0.184017 -0.213793 -0.214421 0 255 0
-0.448312 -0.792549 -0.109409 153 0 76
-0.044222 -0.721398 0.209651 127 127 0
-0.349825 0.295158 0.062149 76 153 0
-0.138665 0.314380 -0.074838 76 153 0
-0.387191 0.621434 0.209651 204 51 127
-0.410346 0.881145 -0.172612 153 0 76
0.399879 0.643303 0.209651 255 0 0
-0.339556 0.203692 -0.219226 0 255 0
-0.230115 0.350432 0.209651 204 51 127
-0.363224 0.295158 -0.028364 76 153 0
0.459898 0.152854 0.071358 76 0 153
-0.212955 0.017782 -0.196006 0 127 127
-0.433896 -0.214653 0.189606 153 0 76
0.446522 0.295158 0.008258 76 153 0
0.293555 0.759369 -0.219226 0 255 0
0.369576 -0.293232 -0.110440 127 0 127
0.084490 -0.045313 0.209651 0 127 127
0.063101 0.299535 -0.214421 76 153 0
-0.355620 -0.274010 -0.201711 127 0 127
0.132190 0.597763 0.178789 153 0 76
0.463439 -0.789143 0.224067 0 127 127
0.252253 0.295158 0.056269 76 153 0
0.459898 0.837221 0.170264 76 0 153
-0.349198 0.392295 0.224067 204 51 127
0.015861 -0.492197 0.209651 0 127 127
0.011044 -0.862400 0.006059 76 0 153
0.040186 0.627359 0.224067 255 0 0
0.161691 -0.337661 -0.219226 0 255 0
0.474314 -0.371350 -0.186087 76 0 153
0.258393 0.881145 0.142629 153 0 76
-0.042175 -0.862400 -0.127361 76 0 153
0.008943 0.453827 -0.219226 0 255 0
-0.111693 0.597763 0.038257 153 0 76
0.044439 -0.368276 0.224067 0 127 127
-0.098034 0.027205 0.209651 204 51 127
0.434088 0.295158 0.037275 76 153 0
0.122302 0.011775 0.213705 255 0 0
-0.091816 -0.274010 0.083791 127 0 127
0.271414 0.314380 0.130273 76 153 0
-0.326702 0.597763 0.030858 153 0 76
-0.062398 -0.293232 0.167550 127 0 127
0.036531 0.296788 -0.214421 76 153 0
-0.148325 -0.715500 0.224067 127 127 0
-0.201254 -0.001439 0.008373 0 127 127
0.410098 0.314380 -0.165851 76 153 0
-0.025892 -0.557393 -0.040280 127 127 0
0.072480 -0.274010 -0.142245 127 0 127
0.210872 0.597763 -0.080384 153 0 76
0.423034 0.470921 -0.214421 0 255 0
0.459898 0.224147 -0.094498 76 0 153
0.296202 -0.293232 0.183452 127 0 127
0.256312 0.588728 0.203644 153 0 76
0.115927 0.384415 -0.214421 0 255 0
-0.173667 0.295158 -0.122073 76 153 0
-0.175472 -0.862400 -0.031369 76 0 153
0.170587 -0.293232 0.168555 127 0 127
0.474314 0.599323 0.165884 76 0 153
-0.029620 0.017782 0.158592 0 127 127
0.204606 -0.557393 -0.102422 127 127 0
0.047820 -0.349423 -0.214421 0 255 0
0.090595 -0.843179 -0.210344 76 0 153
0.191968 -0.001439 0.004313 0 127 127
0.452686 -0.623095 0.209651 0 127 127
-0.433896 0.372930 0.116438 153 0 76
-0.158694 0.881145 0.133165 153 0 76
0.022675 -0.293232 0.150295 127 0 127
0.109992 -0.001439 -0.093721 0 127 127
0.379245 -0.557393 -0.063048 127 127 0
0.385062 -0.862400 -0.128768 76 0 153
-0.337354 0.017782 0.109350 0 127 127
-0.065672 0.580244 0.203644 153 0 76
0.459898 0.364560 -0.062696 76 0 153
0.449917 -0.843179 0.029138 76 0 153
-0.313382 0.258271 0.209651 204 51 127
-0.132188 -0.862400 -0.089437 76 0 153
0.059690 0.017782 0.006084 0 127 127
-0.053217 0.769795 0.209651 204 51 127
0.072954 -0.580364 0.224067 0 127 127
0.074966 -0.557393 0.010711 127 127 0
0.269862 -0.406096 0.209651 0 127 127
-0.123301 0.123172 0.224067 204 51 127
-0.157892 0.861924 -0.160998 153 0 76
0.474314 -0.545197 -0.071913 76 0 153
0.083353 0.245457 -0.219226 0 255 0
-0.120390 -0.805157 -0.233642 204 51 127
-0.220524 0.881145 -0.178899 153 0 76
-0.433896 0.351827 0.042860 153 0 76
-0.396894 -0.105957 -0.214421 0 255 0
0.033436 0.578541 0.102177 153 0 76
0.141881 0.314380 0.114600 76 153 0
-0.150259 0.861924 0.188361 153 0 76
-0.114544 -0.760799 -0.214421 0 255 0
0.303234 -0.001439 -0.065716 0 127 127
-0.238952 0.861924 -0.011954 153 0 76
0.026399 -0.557393 0.106886 127 127 0
0.227766 0.295158 -0.192833 76 153 0
0.073406 0.356068 0.209651 255 0 0
-0.078000 0.005593 -0.233642 0 0 255
-0.167218 0.097495 -0.219226 0 255 0
0.306553 0.881145 0.186229 153 0 76
-0.007000 -0.786822 0.209651 127 127 0
0.033191 -0.671344 -0.214421 0 255 0
-0.448312 0.709718 -0.096627 153 0 76
0.237975 0.017782 0.082943 0 127 127
-0.068222 -0.393582 0.224067 127 127 0
-0.143016 -0.694238 -0.214421 0 255 0
-0.242883 0.861924 0.172008 153 0 76
0.118048 -0.166910 0.224067 0 127 127
0.234404 0.861924 0.020070 153 0 76
0.189364 -0.421987 0.224067 0 127 127
0.282856 -0.843179 -0.114635 76 0 153
-0.433896 0.410046 0.087363 153 0 76
-0.433896 0.339191 0.190439 153 0 76
-0.448312 0.101094 -0.043154 153 0 76
0.347668 0.861924 -0.079186 153 0 76
-0.374899 0.861924 0.085752 153 0 76
0.438808 -0.293232 0.086083 127 0 127
-0.448312 0.005406 -0.062317 153 0 76
0.200181 -0.576614 0.079123 127 127 0
-0.416757 0.523381 -0.214421 0 255 0
0.474314 0.215654 0.028267 76 0 153
0.394814 0.881145 -0.199126 153 0 76
-0.023186 0.597763 -0.051067 153 0 76
-0.349829 0.597763 -0.096026 153 0 76
-0.153279 0.861924 -0.111002 153 0 76
0.459898 -0.680843 0.060818 76 0 153
0.056096 0.597763 -0.180554 153 0 76
-0.409413 -0.843179 0.024605 76 0 153
0.125413 0.881145 0.046866 153 0 76
-0.284873 0.017782 0.099034 0 127 127
0.443106 0.153665 -0.214421 0 255 0
-0.269547 -0.001439 0.014313 0 127 127
-0.238767 -0.093009 0.224067 127 127 0
-0.114716 0.597763 0.077045 153 0 76
-0.433896 -0.434681 0.085697 153 0 76
-0.021402 -0.576614 -0.195714 127 127 0
-0.010899 0.144899 0.209651 204 51 127
-0.448312 0.796860 -0.113780 153 0 76
-0.433896 -0.038210 0.094577 153 0 76
-0.448312 -0.100326 -0.016842 153 0 76
-0.340146 0.295158 -0.073124 76 153 0
0.282794 -0.447825 0.224067 0 127 127
-0.213868 0.295158 -0.192691 76 153 0
-0.154013 0.089242 0.209651 204 51 127
0.459898 0.738228 -0.033854 76 0 153
0.074423 0.782824 -0.214421 0 255 0
-0.223357 -0.452295 0.209651 127 127 0
0.131608 -0.340157 0.224067 0 127 127
-0.383821 -0.862400 0.108058 76 0 153
-0.421605 0.881145 -0.212659 153 0 76
0.086325 -0.104541 0.224067 0 127 127
-0.433896 -0.592408 -0.157239 153 0 76
0.160384 0.578541 0.059929 153 0 76
-0.195880 0.748395 0.209651 204 51 127
0.049706 0.033759 -0.233642 0 0 255
0.122919 0.861924 -0.040049 153 0 76
-0.416972 -0.274010 -0.003337 127 0 127
-0.448312 -0.274642 0.063796 153 0 76
-0.109802 0.295158 0.199004 76 153 0
-0.433896 -0.380638 -0.095020 153 0 76
-0.166675 0.479938 -0.214421 0 255 0
-0.233723 -0.576614 0.108589 127 127 0
-0.383594 -0.832179 0.224067 127 127 0
0.142314 0.799386 0.209651 255 0 0
0.006422 -0.557393 -0.103782 127 127 0
-0.106064 0.324117 0.209651 204 51 127
-0.448312 0.141242 0.068713 153 0 76
0.061472 0.597763 0.161730 153 0 76
0.386365 -0.843179 0.100973 76 0 153
0.068851 0.555274 -0.214421 0 255 0
0.459898 0.664297 -0.111055 76 0 153
-0.202977 0.142941 0.224067 204 51 127
-0.448312 0.710444 0.137152 153 0 76
0.074431 0.295158 0.136916 76 153 0
0.167032 -0.001439 -0.026080 0 127 127
-0.019756 0.881145 -0.086838 153 0 76
-0.198318 0.057426 -0.226015 0 0 255
0.227731 0.213069 0.209651 255 0 0
-0.156697 0.609403 0.209651 204 51 127
-0.356480 -0.274010 0.018858 127 0 127
-0.433896 0.850060 0.056088 153 0 76
0.027676 -0.001439 -0.083155 0 127 127
-0.424582 -0.317980 0.224067 127 127 0
-0.112831 0.861924 0.110046 153 0 76
0.394856 0.881145 0.183222 153 0 76
0.030195 -0.769661 0.224067 0 127 127
0.147412 0.861924 0.114912 153 0 76
-0.448312 -0.076603 -0.045779 153 0 76
0.136589 0.295158 0.000301 76 153 0
-0.134883 0.578541 0.094483 153 0 76
0.459898 0.740279 0.071226 76 0 153
-0.433896 -0.016864 0.000046 153 0 76
-0.355599 -0.674347 0.209651 127 127 0
0.212678 -0.001439 0.049656 0 127 127
-0.153530 0.861924 -0.208958 153 0 76
-0.021137 0.292833 0.224067 204 51 127
0.459898 0.339090 -0.078859 76 0 153
0.133652 0.017782 -0.053017 0 127 127
-0.206193 0.819858 0.209651 204 51 127
0.332159 0.017782 0.008968 0 127 127
0.217939 -0.116420 0.209651 0 127 127
-0.448312 0.232226 0.075280 153 0 76
0.170521 0.017782 0.185163 0 127 127
0.418667 0.578541 0.084098 153 0 76
-0.406225 0.824810 -0.214421 0 255 0
0.106671 -0.486572 -0.219226 0 255 0
0.105381 -0.274010 -0.039894 127 0 127
-0.135931 0.864100 -0.233642 153 0 76
0.300150 -0.746304 -0.219226 0 255 0
-0.014709 -0.862400 -0.083738 76 0 153
-0.347104 -0.274010 0.174672 127 0 127
-0.268215 -0.001439 0.068520 0 127 127
0.459898 0.721322 0.015373 76 0 153
-0.051710 -0.293232 0.073971 127 0 127
-0.404838 -0.293232 -0.203615 127 0 127
0.430191 0.253008 -0.214421 0 255 0
-0.448312 0.235552 0.163231 153 0 76
-0.448312 -0.753105 -0.087538 153 0 76
0.095824 -0.001439 0.175072 0 127 127
0.013724 0.002589 -0.233642 0 0 255
-0.448312 0.069783 -0.133721 153 0 76
-0.233628 0.597763 0.107755 153 0 76
0.336050 0.314380 -0.096417 76 153 0
-0.249384 0.881145 0.034693 153 0 76
0.087735 -0.862400 0.177415 76 0 153
-0.257722 -0.843179 -0.161800 76 0 153
-0.147855 -0.557393 0.035951 127 127 0
-0.229489 0.054730 0.224067 204 51 127
-0.220175 0.209241 -0.219226 0 255 0
0.449836 -0.771150 0.209651 0 127 127
-0.433896 0.551606 -0.084898 153 0 76
-0.410439 0.545396 0.209651 204 51 127
-0.306383 0.854727 0.224067 204 51 127
-0.247510 0.051547 -0.219226 0 255 0
0.236296 -0.001439 -0.072574 0 127 127
-0.114068 -0.293232 -0.156352 127 0 127
0.224372 -0.862400 -0.052335 76 0 153
-0.102537 0.861924 -0.068470 153 0 76
-0.067231 0.692869 0.224067 204 51 127
-0.448312 -0.347113 0.153983 153 0 76
0.474314 -0.112430 0.055689 76 0 153
0.073941 -0.816430 0.209651 0 127 127
-0.297042 0.881145 -0.203670 153 0 76
0.191682 -0.810747 -0.219226 204 51 127
-0.237130 -0.576614 0.053500 127 127 0
0.212991 0.881145 -0.037647 153 0 76
-0.448312 -0.845692 -0.099489 153 0 76
-0.265025 -0.068793 -0.219226 0 255 0
0.127593 0.881145 -0.074742 153 0 76
0.421460 0.649276 0.224067 255 0 0
0.285385 -0.153827 0.224067 0 127 127
-0.433896 -0.526869 0.060789 153 0 76
0.305249 -0.843179 0.162395 76 0 153
-0.295532 -0.796680 -0.233642 204 51 127
-0.433896 0.309139 0.157314 153 0 76
-0.394828 -0.546170 0.224067 127 127 0
0.220431 -0.274010 0.185248 127 0 127
0.277308 -0.274010 0.158225 127 0 127
-0.001565 0.609352 -0.219226 0 255 0
0.474314 -0.654069 0.094693 76 0 153
0.474314 -0.237189 0.048157 76 0 153
0.232667 0.597763 0.097422 153 0 76
0.382927 -0.862400 0.026539 76 0 153
0.459898 0.644244 0.198744 76 0 153
-0.353288 -0.163797 0.224067 127 127 0
-0.014897 0.861924 -0.127006 153 0 76
0.345719 0.275296 0.209651 255 0 0
0.474314 0.154714 0.033356 76 0 153
0.459898 0.797296 -0.032700 76 0 153
-0.398544 0.597763 0.086517 153 0 76
-0.231746 -0.750298 0.209651 127 127 0
0.204780 -0.084642 -0.219226 0 255 0
0.078162 -0.557393 -0.122145 127 127 0
-0.433896 -0.796332 -0.162526 153 0 76
-0.102337 -0.274010 -0.196053 127 0 127
-0.433896 -0.573775 0.171140 153 0 76
0.198379 -0.274010 0.054200 127 0 127
-0.265658 -0.274010 0.157872 127 0 127
-0.376591 -0.576614 0.093114 127 127 0
0.436045 -0.844433 0.224067 0 127 127
0.459898 -0.465661 -0.100559 76 0 153
-0.426052 -0.557393 0.098929 127 127 0
0.332471 0.295158 0.178609 76 153 0
0.474314 0.337202 -0.156978 76 0 153
0.273240 0.314380 0.030579 76 153 0
0.272537 0.295158 0.158528 76 153 0
0.370898 0.597763 -0.196634 153 0 76
-0.201298 -0.293232 0.182534 127 0 127
-0.433896 0.768260 0.139925 153 0 76
0.255925 -0.116024 0.224067 0 127 127
-0.447110 -0.707642 0.213331 127 127 0
0.428655 -0.843179 0.013271 76 0 153
0.120759 0.597763 -0.119138 153 0 76
0.295444 0.017782 -0.133485 0 127 127
0.293350 -0.001439 0.193707 0 127 127
0.230919 -0.576614 0.123778 127 127 0
-0.068244 0.881145 -0.025526 153 0 76
0.369753 -0.843221 0.208450 0 127 127
0.125249 0.314380 -0.028901 76 153 0
0.292327 -0.809362 -0.214421 0 255 0
-0.299232 -0.141166 0.224067 127 127 0
-0.135716 -0.775166 -0.233642 204 51 127
-0.229036 0.295158 -0.025649 76 153 0
-0.022712 -0.001439 -0.208758 0 127 127
-0.284053 0.597763 0.186512 153 0 76
0.459898 0.194920 0.176001 76 0 153
-0.303455 0.341217 -0.214421 0 255 0
-0.064993 0.861924 -0.209627 153 0 76
0.402582 0.126388 -0.214421 0 255 0
0.474314 -0.191989 -0.134359 76 0 153
-0.318713 -0.117817 -0.219226 0 255 0
-0.433896 -0.497468 -0.005964 153 0 76
-0.257282 -0.340699 -0.219226 0 255 0
0.459898 0.253750 0.124405 76 0 153
-0.448312 0.556946 0.085279 153 0 76
0.213305 -0.687713 -0.214421 0 255 0
-0.175635 0.578541 0.179154 153 0 76
0.109968 0.017782 0.163062 0 127 127
-0.177014 -0.004046 -0.233642 0 0 255
-0.399615 -0.788043 -0.233642 204 51 127
-0.448312 0.819250 -0.092512 153 0 76
0.121490 0.861924 -0.108368 153 0 76
0.232819 0.017782 -0.117482 0 127 127
-0.433896 -0.125842 0.048473 153 0 76
0.459898 -0.860871 0.044432 76 0 153
0.396437 0.583805 0.224067 255 0 0
-0.203362 -0.492696 0.209651 127 127 0
-0.423386 0.314380 0.017149 76 153 0
0.226817 0.295158 -0.120571 76 153 0
-0.306736 -0.000969 -0.212018 0 127 127
0.044245 -0.114768 0.224067 0 127 127
-0.054794 -0.843179 0.184928 76 0 153
0.092263 -0.862400 -0.081168 76 0 153
-0.292707 0.627723 -0.219226 0 255 0
0.195298 0.295158 -0.132486 76 153 0
-0.232247 0.184234 -0.214421 0 255 0
0.459898 -0.694450 0.159436 76 0 153
-0.030256 0.296827 -0.214421 76 153 0
-0.154755 0.314380 0.071217 76 153 0
0.326500 -0.862400 0.198609 76 0 153
-0.319359 -0.311428 -0.219226 0 255 0
-0.097921 0.861924 -0.216669 0 255 0
-0.086781 0.295158 -0.196035 76 153 0
0.098027 0.153934 -0.219226 0 255 0
0.107721 0.430859 -0.214421 0 255 0
-0.433896 0.093262 -0.001605 153 0 76
-0.299289 0.314380 0.187725 76 153 0
0.118485 0.314380 -0.165057 76 153 0
-0.448312 -0.132006 -0.036334 153 0 76
-0.254118 -0.825433 -0.219226 0 255 0
-0.245221 -0.836992 0.209651 127 127 0
-0.433896 -0.848347 -0.075439 76 0 153
0.421461 -0.843179 -0.089186 76 0 153
0.335500 0.685863 0.224067 255 0 0
0.459898 -0.326035 0.204844 76 0 153
-0.289534 -0.573779 0.224067 127 127 0
-0.249811 0.578541 0.008304 153 0 76
-0.433896 0.863884 0.080505 153 0 76
-0.216293 0.033450 0.209651 204 51 127
-0.066556 -0.098137 0.224067 127 127 0
-0.433896 0.165814 -0.032476 153 0 76
-0.062481 0.824012 -0.214421 0 255 0
0.440600 0.295158 0.121548 76 153 0
-0.433896 -0.468962 0.108979 153 0 76
0.097480 0.881145 0.002843 153 0 76
0.242577 0.861924 0.146329 153 0 76
0.252136 -0.313784 -0.214421 0 255 0
0.459898 -0.212269 -0.045328 76 0 153
-0.309484 -0.177608 0.224067 127 127 0
-0.281678 0.881145 -0.082060 153 0 76
-0.269135 -0.274010 -0.079850 127 0 127
-0.390178 0.295158 0.164857 76 153 0
0.178716 0.437992 0.209651 255 0 0
-0.433896 0.160396 -0.166701 153 0 76
0.125863 0.578541 0.144268 153 0 76
-0.341023 -0.862400 0.177120 76 0 153
-0.354065 -0.843179 0.205503 76 0 153
0.133243 -0.576614 0.202876 127 127 0
0.474314 0.515205 0.056541 76 0 153
0.083748 -0.304383 -0.214421 0 255 0
0.155679 0.597763 0.117398 153 0 76
-0.214026 -0.001439 -0.091727 0 127 127
0.109124 -0.615688 0.209651 0 127 127
-0.178871 0.270939 -0.214421 0 255 0
-0.099274 0.578541 0.115682 153 0 76
0.120223 0.578541 0.196477 153 0 76
-0.412290 0.587581 0.224067 204 51 127
0.109513 0.658935 0.209651 255 0 0
-0.448312 -0.637595 -0.125460 153 0 76
-0.327165 0.017782 0.082281 0 127 127
0.442014 -0.129146 0.209651 0 127 127
-0.448312 0.375140 0.064251 153 0 76
0.044617 0.448812 0.224067 255 0 0
-0.448312 0.233068 -0.196501 153 0 76
-0.197733 -0.293232 -0.024229 127 0 127
0.459898 0.212589 -0.157187 76 0 153
-0.132377 0.597763 0.192981 153 0 76
-0.175333 0.640474 0.209651 204 51 127
-0.093352 0.458098 -0.214421 0 255 0
-0.433896 -0.713210 -0.047869 153 0 76
-0.433896 -0.668370 0.060791 153 0 76
-0.289086 -0.862400 -0.108814 76 0 153
-0.289553 0.164036 0.224067 204 51 127
0.025332 0.396542 -0.219226 0 255 0
0.416300 0.861924 -0.195001 153 0 76
0.064548 -0.609440 -0.214421 0 255 0
-0.433896 -0.156110 0.159585 153 0 76
0.459898 -0.192394 0.183214 76 0 153
-0.131428 -0.576614 0.046262 127 127 0
-0.433896 0.388697 -0.140376 153 0 76
-0.313806 -0.644797 0.224067 127 127 0
0.474314 -0.779931 0.014849 76 0 153
-0.393108 0.861924 -0.000434 153 0 76
-0.433896 -0.390245 -0.058791 153 0 76
0.459898 -0.549058 -0.208986 76 0 153
0.252605 -0.130281 -0.214421 0 255 0
-0.421825 0.314380 0.120453 76 153 0
0.459898 0.619792 0.088757 76 0 153
0.248777 -0.843179 0.102954 76 0 153
0.284767 -0.347314 -0.219226 0 255 0
0.292355 0.049513 -0.219226 0 255 0
0.033397 0.314380 -0.134963 76 153 0
0.018591 -0.576614 0.044440 127 127 0
0.459898 -0.256666 0.015857 76 0 153
0.128123 -0.073373 0.224067 0 127 127
-0.448312 -0.721669 0.119018 153 0 76
-0.428946 0.314380 -0.074836 76 153 0
-0.198397 0.597763 0.040594 153 0 76
-0.240876 0.881145 0.110097 153 0 76
-0.198822 -0.576614 -0.117019 127 127 0
-0.433896 0.709036 0.102060 153 0 76
-0.312931 0.505617 0.209651 204 51 127
-0.095186 0.636168 -0.219226 0 255 0
0.114326 0.578541 -0.191734 153 0 76
0.178299 0.295158 0.004734 76 153 0
0.354302 0.881145 -0.117493 153 0 76
0.474314 -0.765102 0.093288 76 0 153
-0.411053 -0.788475 0.209651 127 127 0
0.325735 -0.862400 0.091576 76 0 153
0.459898 0.798516 0.007634 76 0 153
0.474314 0.337073 0.146987 76 0 153
-0.021132 -0.001439 -0.133602 0 127 127
-0.056579 0.597763 0.072440 153 0 76
0.149883 0.578541 -0.174194 153 0 76
-0.161668 0.017782 -0.110184 0 127 127
0.159440 0.511751 -0.219226 0 255 0
0.038104 0.578541 -0.191994 153 0 76
0.459898 0.007440 -0.074740 0 127 127
0.459898 0.210578 -0.002223 76 0 153
-0.163110 0.017782 0.043621 0 127 127
-0.117748 0.800001 -0.214421 0 255 0
0.459898 -0.840252 0.196788 76 0 153
-0.271161 -0.274010 -0.146566 127 0 127
-0.136178 -0.274010 -0.040759 127 0 127
0.337359 0.091466 0.209651 255 0 0
-0.029284 0.269012 0.224067 204 51 127
-0.279789 -0.843179 -0.046618 76 0 153
0.117379 0.881145 0.105058 153 0 76
0.449016 -0.827073 -0.214421 0 255 0
0.155671 -0.293232 -0.121922 127 0 127
0.415895 -0.576614 -0.103305 127 127 0
0.217679 -0.576614 0.200698 127 127 0
-0.044704 0.314380 -0.201502 76 153 0
-0.088218 -0.576614 0.117653 127 127 0
0.459898 -0.225001 0.202812 76 0 153
-0.429239 0.017782 0.133135 0 127 127
0.414274 -0.001439 -0.158727 0 127 127
0.177406 -0.843179 -0.161006 76 0 153
-0.021343 0.009373 0.213031 127 127 0
-0.141331 0.861924 0.041905 153 0 76
-0.217320 -0.775841 -0.233642 204 51 127
-0.363983 0.794520 0.224067 204 51 127
0.147727 0.861924 -0.123236 153 0 76
-0.174121 0.711082 0.224067 204 51 127
-0.017361 -0.704806 0.209651 127 127 0
0.108217 -0.212953 0.224067 0 127 127
-0.005400 -0.274010 0.181165 127 0 127
0.105597 0.597763 0.055866 153 0 76
0.220832 -0.862400 0.016931 76 0 153
0.232121 0.357818 0.224067 255 0 0
-0.062084 0.087025 -0.214421 0 255 0
0.382286 -0.510483 0.209651 0 127 127
-0.375859 -0.161507 0.209651 127 127 0
0.415955 -0.293232 0.029576 127 0 127
-0.448312 0.415283 0.060134 153 0 76
-0.380406 -0.330989 0.224067 127 127 0
-0.114654 -0.511881 -0.214421 0 255 0
-0.431542 -0.237038 0.224067 127 127 0
-0.342540 0.581214 -0.214421 0 255 0
-0.186370 -0.572627 0.224067 127 127 0
0.235030 0.073268 -0.219226 0 255 0
0.286598 0.198476 0.209651 255 0 0
-0.448312 -0.137504 -0.098649 153 0 76
-0.337153 0.578541 -0.143281 153 0 76
-0.351570 -0.862400 0.026838 76 0 153
0.406694 0.360702 -0.219226 0 255 0
-0.360672 -0.843179 -0.165569 76 0 153
0.141062 -0.862400 0.083119 76 0 153
-0.270360 0.861924 -0.016192 153 0 76
-0.332892 -0.862400 -0.203221 76 0 153
-0.227668 -0.349129 0.209651 127 127 0
0.474314 0.624738 -0.187403 76 0 153
0.459898 -0.823876 -0.067778 76 0 153
0.452317 -0.862400 -0.210062 76 0 153
0.199198 0.113184 -0.214421 0 255 0
0.344093 0.861924 0.187454 153 0 76
0.474314 -0.122857 -0.090452 76 0 153
0.420462 0.616039 -0.219226 0 255 0
0.056893 0.266458 0.224067 255 0 0
-0.261948 0.861924 0.125220 153 0 76
0.263303 -0.209077 0.209651 0 127 127
0.205900 0.861924 -0.020179 153 0 76
-0.044611 0.830620 -0.233642 255 0 0
0.206804 -0.410581 -0.214421 0 255 0
-0.243939 0.701797 0.224067 204 51 127
0.452859 0.448681 -0.219226 0 255 0
-0.078591 0.208007 0.209651 204 51 127
-0.139256 -0.560413 0.224067 127 127 0
-0.403978 -0.027760 0.209651 127 127 0
-0.282735 -0.559513 0.203644 127 127 0
0.393967 -0.293232 0.129687 127 0 127
0.247287 0.578541 -0.006328 153 0 76
0.459898 -0.815690 0.162045 76 0 153
-0.433896 -0.825124 0.202439 153 0 76
0.297871 0.414287 -0.219226 0 255 0
-0.433896 0.165563 0.107415 153 0 76
-0.269943 0.796640 -0.233642 255 0 0
-0.013602 -0.862400 -0.012203 76 0 153
-0.379691 0.424416 0.209651 204 51 127
0.474314 -0.250106 -0.140098 76 0 153
0.068545 0.861924 -0.101371 153 0 76
0.471429 0.881145 0.010697 76 0 153
0.404838 -0.143893 -0.214421 0 255 0
0.170767 -0.155059 0.224067 0 127 127
0.243213 -0.274010 -0.125886 127 0 127
0.197582 -0.749700 0.209651 0 127 127
0.397099 -0.274010 -0.062342 127 0 127
0.179634 -0.576614 -0.181236 127 127 0
-0.070000 0.017782 0.085085 0 127 127
-0.229794 0.458344 -0.214421 0 255 0
0.474314 0.074740 -0.230081 76 0 153
-0.433896 0.026726 0.079853 153 0 76
-0.075089 0.861924 -0.005440 153 0 76
0.301933 -0.293232 -0.145975 127 0 127
-0.289312 -0.747072 -0.228884 204 51 127
-0.014781 -0.642514 0.224067 127 127 0
0.041092 0.295158 -0.048495 76 153 0
-0.005748 -0.274010 0.144020 127 0 127
-0.448312 0.297407 0.074093 153 0 76
-0.152254 -0.795982 0.224067 127 127 0
0.361101 -0.062749 -0.219226 0 255 0
-0.142645 0.861924 -0.182533 153 0 76
-0.220916 -0.278996 0.224067 127 127 0
0.074153 0.312802 0.203644 76 153 0
-0.072440 -0.466993 -0.219226 0 255 0
-0.433896 -0.243984 -0.091599 153 0 76
0.058036 -0.274010 -0.188641 127 0 127
0.368304 -0.170569 -0.214421 0 255 0
0.180793 0.881145 0.030144 153 0 76
-0.448312 0.772716 -0.147294 153 0 76
-0.286638 0.653185 0.209651 204 51 127
0.474314 -0.155508 0.023675 76 0 153
0.061297 0.017782 -0.148986 0 127 127
-0.254560 0.657127 0.224067 204 51 127
0.296307 0.597763 -0.187874 153 0 76
-0.023781 0.373507 -0.214421 0 255 0
-0.046448 0.597763 0.101306 153 0 76
-0.367477 -0.862400 0.087918 76 0 153
-0.193358 -0.274010 -0.052694 127 0 127
-0.122216 -0.502723 0.209651 127 127 0
-0.433896 -0.256044 0.190724 153 0 76
-0.433896 -0.152645 0.003912 153 0 76
0.158754 -0.801321 0.224067 0 127 127
0.205984 -0.516325 0.209651 0 127 127
-0.092998 0.767570 0.224067 204 51 127
0.326399 -0.862400 -0.041966 76 0 153
0.267120 0.074846 0.209651 255 0 0
-0.433896 -0.057557 -0.001277 153 0 76
-0.220077 0.881145 -0.027035 153 0 76
0.307123 0.550165 0.224067 255 0 0
-0.345300 -0.089417 0.209651 127 127 0
-0.140963 0.881145 -0.067432 153 0 76
-0.448312 0.689574 -0.053112 153 0 76
0.474314 -0.541487 -0.043890 76 0 153
-0.061472 -0.221715 0.224067 127 127 0
0.108294 0.017782 0.189137 0 127 127
0.004338 0.105277 0.209651 204 51 127
-0.372670 -0.786503 -0.219226 204 51 127
-0.221178 0.556649 -0.214421 0 255 0
-0.132031 -0.315268 0.224067 127 127 0
0.044787 0.840874 0.209651 255 0 0
0.167015 -0.504899 0.209651 0 127 127
-0.146697 0.223532 -0.214421 0 255 0
-0.220518 0.627905 0.224067 204 51 127
-0.431838 -0.088433 0.209651 127 127 0
0.190439 -0.274010 -0.160970 127 0 127
0.459898 0.434163 0.181374 76 0 153
-0.007432 0.640607 -0.219226 0 255 0
-0.365004 0.206432 0.209651 204 51 127
0.459898 -0.255949 0.090238 76 0 153
0.474314 0.020157 0.068844 76 0 153
0.105294 0.800604 0.224067 255 0 0
0.098724 -0.419422 0.209651 0 127 127
0.071566 -0.843179 0.183671 76 0 153
0.449285 -0.170867 -0.214421 0 255 0
-0.376423 -0.576614 -0.143128 127 127 0
0.162872 0.411618 -0.219226 0 255 0
0.348565 -0.843179 -0.011181 76 0 153
-0.433896 -0.036532 -0.195628 153 0 76
0.002044 0.518048 -0.219226 0 255 0
0.474314 -0.510716 -0.016531 76 0 153
-0.291080 -0.843179 -0.129606 76 0 153
-0.205150 -0.293232 -0.078673 127 0 127
0.459898 0.248232 -0.213626 76 0 153
-0.336430 -0.001439 0.143972 0 127 127
-0.050710 0.057426 -0.229963 0 0 255
-0.022245 -0.168155 0.247847 127 0 127
-0.271876 -0.576614 -0.010962 127 127 0
0.047282 0.861924 -0.025070 153 0 76
0.275643 0.646607 -0.214421 0 255 0
-0.433896 0.385293 -0.221595 153 0 76
0.334871 -0.571295 -0.219226 0 255 0
-0.154046 -0.137171 0.224067 127 127 0
0.341694 -0.465838 0.209651 0 127 127
-0.433896 0.129801 0.013293 153 0 76
-0.376063 0.017782 -0.031321 0 127 127
-0.448312 -0.011854 0.024998 153 0 76
0.142526 0.017782 -0.179161 0 127 127
0.207735 0.026754 -0.214421 0 255 0
-0.218839 -0.557393 0.164444 127 127 0
-0.419653 0.017782 0.172219 0 127 127
0.452296 -0.085949 -0.214421 0 255 0
-0.054172 0.881145 0.024860 153 0 76
0.459898 -0.404510 -0.161361 76 0 153
-0.433896 -0.377090 -0.006914 153 0 76
-0.433896 -0.442261 0.131941 153 0 76
0.474314 0.548603 0.077027 76 0 153
-0.049004 0.415810 -0.219226 0 255 0
0.474314 0.444248 -0.094876 76 0 153
0.138723 0.597763 -0.081737 153 0 76
0.258335 -0.001439 0.139237 0 127 127
-0.089073 -0.342756 -0.219226 0 255 0
-0.021102 0.295158 0.090145 76 153 0
0.172133 0.248750 -0.214421 0 255 0
-0.433896 -0.655390 -0.115393 153 0 76
0.401035 0.578541 0.173000 153 0 76
-0.433896 0.040362 -0.088408 153 0 76
-0.254694 0.017782 0.104368 0 127 127
0.401110 0.597763 -0.181291 153 0 76
-0.128383 -0.311481 -0.214421 0 255 0
-0.322837 0.597763 -0.135317 153 0 76
-0.074104 0.536802 -0.214421 0 255 0
-0.005592 -0.291226 0.203644 127 0 127
0.474314 -0.844242 -0.080704 76 0 153
0.299965 0.861924 -0.005407 153 0 76
-0.292501 -0.843179 -0.198201 76 0 153
0.437687 -0.001439 0.130902 0 127 127
0.002468 0.295158 -0.110939 76 153 0
-0.126526 0.295158 0.140747 76 153 0
0.366783 0.537706 -0.214421 0 255 0
-0.252298 -0.843179 0.016732 76 0 153
-0.276505 -0.557393 0.080357 127 127 0
-0.256305 0.881145 -0.125996 153 0 76
-0.004072 -0.862400 0.033008 76 0 153
0.450037 -0.293232 0.125954 127 0 127
0.443479 -0.293232 -0.015977 127 0 127
0.327401 0.881145 0.219368 255 0 0
-0.429211 0.263777 0.209651 204 51 127
-0.433896 0.744861 0.044338 153 0 76
0.073139 -0.862400 0.132437 76 0 153
-0.275103 0.578541 -0.004519 153 0 76
-0.448312 0.623983 -0.087483 153 0 76
0.370929 -0.628142 0.209651 0 127 127
-0.362064 0.522266 0.224067 204 51 127
0.039568 0.017782 -0.095672 0 127 127
-0.198201 0.017782 0.096373 0 127 127
0.063001 -0.386923 -0.219226 0 255 0
-0.238885 0.881145 0.064030 153 0 76
-0.172953 0.790994 -0.214421 0 255 0
0.282738 0.861924 0.066839 153 0 76
0.215425 -0.836217 -0.219226 0 255 0
-0.394871 -0.862400 0.020599 76 0 153
-0.058066 -0.010934 0.209651 127 127 0
-0.108130 0.881145 0.015246 153 0 76
-0.188775 -0.189709 -0.214421 0 255 0
0.211087 -0.576614 -0.064985 127 127 0
0.359444 0.295158 -0.027053 76 153 0
-0.021945 -0.862400 -0.147968 76 0 153
0.198150 0.295158 0.195926 76 153 0
0.035360 0.120002 -0.214421 0 255 0
-0.169023 -0.490181 0.209651 127 127 0
0.459898 0.633257 0.130551 76 0 153
0.474314 0.689446 0.032128 76 0 153
0.285101 0.524406 -0.214421 0 255 0
-0.433896 0.252949 -0.044609 153 0 76
-0.262759 0.618631 -0.214421 0 255 0
-0.408593 0.793335 0.224067 204 51 127
-0.173726 -0.131916 0.209651 127 127 0
-0.104140 -0.274010 0.200764 127 0 127
0.311885 0.861924 0.139290 153 0 76
-0.433896 0.043813 -0.062098 153 0 76
-0.436563 0.746449 -0.233642 153 0 76
-0.171687 0.314380 0.091249 76 153 0
-0.433896 -0.530496 0.108265 153 0 76
-0.048638 -0.294395 0.209651 127 127 0
-0.433896 -0.393392 -0.198281 153 0 76
-0.160421 -0.046647 -0.219226 0 255 0
-0.377247 0.398665 -0.214421 0 255 0
0.459898 -0.618671 -0.137049 76 0 153
0.212853 -0.010805 0.224067 0 127 127
-0.433896 -0.274756 0.026298 153 0 76
0.300323 0.597763 0.163400 153 0 76
0.104170 -0.441225 -0.214421 0 255 0
0.165869 0.699238 -0.214421 0 255 0
-0.277715 -0.458290 -0.214421 0 255 0
0.028054 0.881145 -0.123581 153 0 76
-0.133885 0.597763 -0.091575 153 0 76
0.474314 0.584332 -0.100038 76 0 153
-0.318088 -0.817617 -0.219226 204 51 127
0.368719 0.861924 -0.146005 153 0 76
0.038943 0.479004 0.224067 255 0 0
0.009975 0.273985 -0.219226 0 255 0
-0.232918 0.083506 -0.214421 0 255 0
0.048306 0.295158 -0.017876 76 153 0
0.412204 -0.001439 -0.023191 0 127 127
-0.425946 -0.270284 0.224067 127 127 0
0.451067 -0.001439 0.002138 0 127 127
0.337264 0.314380 -0.161429 76 153 0
0.297418 -0.557393 0.192162 127 127 0
-0.006700 0.017782 -0.050054 0 127 127
0.459898 0.045783 -0.144891 76 0 153
-0.120864 0.314380 -0.024193 76 153 0
-0.389980 -0.293232 -0.137629 127 0 127
0.318108 0.597763 -0.099361 153 0 76
-0.293903 0.708465 0.224067 204 51 127
-0.036197 -0.344472 -0.214421 0 255 0
-0.433896 0.192724 0.114200 153 0 76
0.336937 -0.372059 0.209651 0 127 127
-0.214107 0.578541 -0.097032 153 0 76
0.334098 0.017782 -0.028375 0 127 127
0.473113 0.458686 0.218301 255 0 0
0.241095 0.881145 -0.201253 153 0 76
0.029059 -0.831269 -0.219226 204 51 127
-0.433896 -0.598709 0.069275 153 0 76
0.414353 0.019338 -0.214421 0 255 0
-0.240838 0.295158 0.189876 76 153 0
0.095950 -0.576614 0.084209 127 127 0
0.030426 0.086603 -0.219226 0 255 0
-0.433896 -0.613608 -0.196146 153 0 76
0.061219 0.233875 0.224067 255 0 0
0.474314 -0.747159 -0.084326 76 0 153
0.208025 -0.293232 0.200507 127 0 127
-0.060726 0.295158 -0.030917 76 153 0
0.359248 0.272328 -0.219226 0 255 0
-0.329550 -0.293232 -0.075999 127 0 127
0.459898 -0.061309 0.063965 76 0 153
0.114145 -0.557393 -0.154095 127 127 0
-0.342505 0.041047 -0.219226 0 255 0
0.208931 0.377285 0.209651 255 0 0
-0.398141 0.333903 -0.214421 0 255 0
-0.342678 -0.675515 -0.214421 0 255 0
0.330943 0.295158 -0.046733 76 153 0
0.240942 0.017782 -0.211716 0 127 127
0.459898 0.025327 0.014637 76 0 153
-0.334669 0.689229 0.224067 204 51 127
0.140555 0.017782 -0.103812 0 127 127
0.060713 -0.862400 0.153459 76 0 153
-0.433896 -0.081636 -0.093248 153 0 76
-0.004636 -0.063692 -0.214421 0 255 0
-0.123692 0.861924 -0.201107 153 0 76
-0.448312 -0.144867 0.058852 153 0 76
-0.357730 0.841296 0.224067 204 51 127
0.115914 -0.547517 -0.214421 0 255 0
-0.088041 -0.843179 -0.122066 76 0 153
0.233152 0.295158 0.024532 76 153 0
-0.051121 -0.774325 0.224067 127 127 0
0.448204 -0.561862 0.224067 0 127 127
0.363340 0.314380 -0.125054 76 153 0
0.474314 -0.580583 -0.052388 76 0 153
-0.018366 -0.288224 0.224067 127 127 0
0.145964 0.295158 0.038425 76 153 0
0.474314 0.608229 0.053624 76 0 153
-0.374678 -0.862400 -0.019043 76 0 153
-0.222726 -0.067180 0.224067 127 127 0
0.126371 0.430166 0.209651 255 0 0
0.354494 -0.199453 0.224067 0 127 127
0.171536 0.380146 -0.219226 0 255 0
0.205447 0.389753 -0.219226 0 255 0
0.365293 -0.274010 -0.036121 127 0 127
-0.433896 0.301258 -0.190067 76 153 0
-0.166696 -0.293232 0.120840 127 0 127
0.266631 0.314380 -0.030444 76 153 0
-0.347415 0.597763 0.139733 153 0 76
-0.352491 0.861924 0.206381 153 0 76
-0.226972 -0.576614 -0.213943 127 127 0
-0.217084 0.314380 0.039159 76 153 0
0.125790 -0.843179 -0.183080 76 0 153
-0.230766 0.850578 0.209651 204 51 127
0.235505 -0.351024 -0.219226 0 255 0
0.436512 0.425939 0.209651 255 0 0
0.243114 0.587434 0.224067 255 0 0
0.258432 -0.679314 0.209651 0 127 127
-0.433896 -0.301621 0.179223 153 0 76
-0.158305 -0.576614 -0.193270 127 127 0
-0.414964 0.709233 0.209651 204 51 127
-0.087340 -0.001439 -0.193713 0 127 127
0.094830 -0.557393 -0.026745 127 127 0
0.360807 0.881145 -0.068806 153 0 76
0.079507 -0.557393 -0.083127 127 127 0
0.036902 0.881145 -0.147713 153 0 76
0.397433 0.683879 -0.219226 0 255 0
-0.156917 -0.001439 0.029642 0 127 127
0.013386 -0.862400 0.153688 76 0 153
-0.073564 0.881145 -0.110848 153 0 76
0.272518 -0.862400 0.045207 76 0 153
-0.139363 0.011775 0.220395 204 51 127
0.438503 -0.843179 0.054533 76 0 153
-0.109650 -0.293232 0.082768 127 0 127
-0.065814 -0.104165 -0.219226 0 255 0
-0.292787 -0.274010 0.016861 127 0 127
0.034774 -0.590650 -0.214421 0 255 0
0.406799 -0.622231 0.224067 0 127 127
0.268974 0.110675 -0.219226 0 255 0
0.266809 -0.274010 0.064104 127 0 127
0.070680 0.314380 0.035068 76 153 0
0.459898 0.859251 -0.197219 76 0 153
-0.200032 -0.859997 0.216852 127 127 0
0.474314 0.405722 -0.179798 76 0 153
0.474314 0.138618 0.118108 76 0 153
0.216999 -0.576614 0.100248 127 127 0
0.474314 0.814591 -0.154346 76 0 153
0.314266 -0.518409 -0.214421 0 255 0
0.361900 -0.274010 0.180556 127 0 127
-0.268231 -0.653252 0.224067 127 127 0
-0.422957 0.489646 0.224067 204 51 127
-0.101463 -0.413845 -0.214421 0 255 0
-0.433896 0.398100 -0.040286 153 0 76
0.474314 -0.096532 -0.126678 76 0 153
-0.174019 0.861924 0.129586 153 0 76
-0.357765 -0.320865 -0.214421 0 255 0
0.363956 0.295158 0.103948 76 153 0
-0.206232 -0.843179 -0.139657 76 0 153
0.053561 0.881145 -0.071387 153 0 76
-0.433896 0.853509 0.156168 153 0 76
0.366527 -0.001439 0.201298 0 127 127
-0.408378 -0.862400 -0.095521 76 0 153
-0.444530 -0.782675 0.208450 127 0 127
0.178562 -0.313424 0.209651 0 127 127
-0.350790 -0.758809 -0.233642 204 51 127
-0.029241 0.037987 0.243005 0 0 255
0.371341 -0.821194 -0.233642 204 51 127
-0.118854 0.523146 -0.219226 0 255 0
0.012557 0.861924 -0.029390 153 0 76
0.459898 0.158227 -0.192031 76 0 153
-0.219478 -0.432297 0.224067 127 127 0
-0.285552 -0.390256 -0.219226 0 255 0
-0.448312 0.014364 0.006734 153 0 76
0.115433 0.295158 -0.083552 76 153 0
0.474314 0.260825 -0.169904 76 0 153
0.443092 -0.328766 -0.219226 0 255 0
-0.337579 0.197809 0.209651 204 51 127
-0.448312 0.430548 0.207126 153 0 76
-0.300395 0.112085 0.209651 204 51 127
0.255880 0.861924 0.009026 153 0 76
0.474314 0.453226 0.193327 76 0 153
0.011800 -0.199430 0.220517 127 127 0
-0.062122 -0.001439 -0.072138 0 127 127
0.438600 -0.862400 0.204729 76 0 153
0.459898 0.290774 -0.202655 76 0 153
-0.001845 -0.293232 -0.095094 127 0 127
0.450509 -0.557393 0.033599 127 127 0
0.039260 -0.576614 0.128688 127 127 0
0.474314 0.060079 -0.028417 76 0 153
0.270831 0.881145 0.171603 153 0 76
-0.433896 -0.305356 -0.190587 153 0 76
0.352719 0.295158 0.035872 76 153 0
0.346884 0.314380 -0.204309 76 153 0
0.141425 -0.001439 -0.023813 0 127 127
-0.447137 -0.458462 -0.233642 153 0 76
0.042797 -0.576614 0.201752 127 127 0
0.446737 0.356873 0.224067 255 0 0
-0.409179 -0.862400 -0.176782 76 0 153
0.323277 -0.787683 -0.219226 0 255 0
0.089741 -0.862400 -0.189073 76 0 153
0.455259 -0.274010 -0.059886 127 0 127
-0.448312 0.609682 0.055814 153 0 76
0.062020 -0.576614 -0.059809 127 127 0
-0.433896 0.016583 0.197780 0 127 127
0.474314 0.098060 -0.070308 76 0 153
0.399549 -0.293232 0.102468 127 0 127
0.200537 -0.573545 0.224067 0 127 127
0.242556 -0.862400 -0.180595 76 0 153
-0.254133 0.490778 -0.214421 0 255 0
-0.243864 -0.198717 0.224067 127 127 0
-0.192790 0.295158 0.122294 76 153 0
0.347035 -0.508862 0.224067 0 127 127
-0.188451 0.843350 -0.233642 255 0 0
0.127098 -0.834866 -0.233642 204 51 127
-0.371873 -0.394959 0.209651 127 127 0
0.434332 0.597763 0.019502 153 0 76
0.459898 -0.214866 -0.086825 76 0 153
-0.286253 0.578541 -0.114018 153 0 76
-0.064303 -0.576614 0.136146 127 127 0
0.119776 -0.862400 -0.127669 76 0 153
-0.042121 -0.039404 -0.214421 0 255 0
-0.448312 0.508524 -0.072581 153 0 76
0.265449 -0.277671 0.224067 0 127 127
-0.033280 -0.274010 0.142414 127 0 127
-0.113572 0.295158 -0.186883 76 153 0
0.437454 -0.202770 0.209651 0 127 127
0.235611 0.578541 0.111901 153 0 76
-0.448312 0.570025 -0.172702 153 0 76
0.456770 0.881145 -0.011104 153 0 76
-0.040228 0.295158 -0.097177 76 153 0
0.474314 0.130495 -0.000168 76 0 153
-0.203727 -0.200849 0.224067 127 127 0
0.114062 -0.843179 0.031232 76 0 153
0.474314 -0.713161 -0.086571 76 0 153
-0.448312 0.366013 0.006742 153 0 76
0.242062 0.861924 -0.047758 153 0 76
-0.384858 -0.843179 0.181691 76 0 153
-0.448312 -0.733429 0.077268 153 0 76
0.112999 -0.321179 -0.219226 0 255 0
-0.144939 -0.448313 0.224067 127 127 0
0.160303 0.295158 0.147510 76 153 0
-0.166483 -0.287528 -0.214421 0 255 0
0.459898 0.533953 0.184255 76 0 153
-0.287080 -0.843179 0.123260 76 0 153
0.040834 0.810151 -0.214421 0 255 0
-0.433896 -0.119171 -0.120145 153 0 76
-0.317701 0.881145 0.216490 204 51 127
0.187798 0.295158 -0.054054 76 153 0
-0.198186 -0.339097 -0.214421 0 255 0
-0.101095 0.814551 0.224067 204 51 127
0.365677 -0.862400 -0.199058 76 0 153
-0.158635 -0.576614 -0.053096 127 127 0
-0.444685 0.184670 0.224067 204 51 127
0.092548 -0.293232 -0.063688 127 0 127
0.180813 0.597763 -0.015139 153 0 76
-0.448312 0.503788 -0.041027 153 0 76
-0.103950 0.216706 -0.219226 0 255 0
-0.448312 -0.774824 -0.064120 153 0 76
0.283577 0.861924 -0.177359 153 0 76
0.434722 0.295158 -0.204178 76 153 0
0.087118 -0.001439 -0.015181 0 127 127
-0.238341 -0.610055 0.209651 127 127 0
0.321861 -0.076294 0.209651 0 127 127
0.027961 0.578541 0.126201 153 0 76
-0.448312 0.643451 -0.227618 153 0 76
0.274141 -0.274010 0.008592 127 0 127
-0.433896 0.842474 -0.218434 153 0 76
0.022526 -0.001439 0.180958 0 127 127
0.448256 0.000103 -0.212018 0 127 127
-0.294581 -0.654683 0.209651 127 127 0
-0.378227 0.881145 -0.087918 153 0 76
-0.120152 -0.843179 -0.098186 76 0 153
0.073697 -0.794955 -0.219226 0 255 0
-0.149207 -0.534865 -0.219226 0 255 0
-0.433896 -0.525363 0.010911 153 0 76
0.013387 -0.576614 -0.019547 127 127 0
0.357621 -0.001439 -0.106197 0 127 127
0.474314 0.712970 -0.108555 76 0 153
0.459898 0.540055 -0.217136 76 0 153
-0.297055 0.295158 -0.042483 76 153 0
0.238903 0.017782 -0.092670 0 127 127
-0.326267 0.017782 0.180177 0 127 127
0.005559 0.578541 0.053823 153 0 76
-0.399012 0.129865 -0.214421 0 255 0
0.474314 -0.025233 0.030180 76 0 153
-0.448312 0.654569 0.190539 153 0 76
-0.383892 0.861924 0.129279 153 0 76
-0.075510 -0.576614 0.164907 127 127 0
0.400583 -0.319145 0.224067 0 127 127
0.213683 0.565503 -0.219226 0 255 0
-0.292006 0.017782 0.146584 0 127 127
-0.004696 0.314380 0.103538 76 153 0
-0.141058 -0.274010 0.085770 127 0 127
-0.305519 -0.417959 0.209651 127 127 0
-0.079665 0.314380 0.082127 76 153 0
0.001343 0.024610 -0.233642 0 0 255
0.045929 0.169412 0.209651 255 0 0
-0.448312 -0.703810 -0.139214 153 0 76
0.123832 -0.274010 0.023206 127 0 127
0.103854 -0.711399 -0.219226 0 255 0
-0.355723 -0.259247 0.209651 127 127 0
-0.084072 -0.862400 -0.213569 76 0 153
-0.448312 -0.737086 -0.054848 153 0 76
-0.013709 0.351999 -0.219226 0 255 0
-0.015544 0.861924 -0.165590 153 0 76
-0.139363 0.314380 0.100692 76 153 0
0.247872 -0.293232 0.165840 127 0 127
-0.402205 -0.354860 -0.214421 0 255 0
0.025012 0.314380 0.081258 76 153 0
-0.199719 -0.243043 0.209651 127 127 0
-0.315049 0.786299 -0.214421 0 255 0
-0.311773 0.733651 -0.219226 0 255 0
-0.211762 -0.843179 0.189956 76 0 153
0.049860 0.274502 0.249674 0 255 0
0.173314 -0.426822 -0.219226 0 255 0
0.474314 0.049400 0.096502 76 0 153
-0.405282 0.597763 -0.132117 153 0 76
0.286386 0.578541 -0.012904 153 0 76
-0.433896 -0.069751 0.123840 153 0 76
-0.273565 0.386907 -0.219226 0 255 0
0.019450 0.881145 0.121063 153 0 76
-0.127559 0.597763 -0.057372 153 0 76
-0.012315 -0.001439 0.187736 0 127 127
-0.369743 -0.293232 -0.000249 127 0 127
0.459898 -0.469468 -0.227900 76 0 153
0.128825 -0.843179 -0.208033 76 0 153
-0.438867 0.464266 0.208450 127 0 127
0.032894 0.119690 0.224067 255 0 0
-0.448312 0.313970 -0.092185 153 0 76
0.459898 0.779156 0.168512 76 0 153
-0.182260 -0.843179 0.175314 76 0 153
0.137813 -0.655777 -0.214421 0 255 0
-0.097128 -0.293232 -0.131402 127 0 127
0.397546 -0.679100 0.224067 0 127 127
0.459898 -0.608054 0.133243 76 0 153
-0.448312 0.335276 -0.219900 153 0 76
-0.152669 -0.433977 -0.219226 0 255 0
0.397578 0.017782 -0.193918 0 127 127
-0.433896 0.061205 -0.195832 153 0 76
0.033577 0.597763 -0.172534 153 0 76
-0.031698 0.017782 -0.169568 0 127 127
-0.252578 0.295158 0.036488 76 153 0
0.053771 -0.293232 -0.174783 127 0 127
-0.078100 0.706771 -0.214421 0 255 0
-0.433896 0.200939 -0.151178 153 0 76
-0.237025 -0.747072 -0.232988 204 51 127
-0.317173 0.212347 -0.214421 0 255 0
0.203740 -0.576614 0.037587 127 127 0
-0.448312 0.369408 0.168600 153 0 76
-0.234245 -0.576614 0.017426 127 127 0
-0.052997 -0.072760 -0.214421 0 255 0
-0.178414 0.458569 -0.219226 0 255 0
-0.162195 0.861924 -0.027433 153 0 76
0.156314 -0.578696 -0.214421 0 255 0
0.174110 0.627599 0.224067 255 0 0
-0.143085 -0.001439 -0.080262 0 127 127
-0.215711 -0.862400 0.132266 76 0 153
-0.448312 0.061600 0.129002 153 0 76
0.423601 -0.293232 0.003128 127 0 127
0.451364 0.699519 0.224067 255 0 0
-0.147764 -0.274010 -0.074131 127 0 127
0.266964 -0.274010 -0.194317 127 0 127
0.029868 0.669328 -0.219226 0 255 0
0.033181 -0.862400 0.089182 76 0 153
0.401543 0.597763 0.047822 153 0 76
-0.352641 -0.274010 0.120494 127 0 127
0.287389 0.295158 0.029919 76 153 0
0.455221 0.578541 0.034435 153 0 76
-0.284497 0.017782 0.064057 0 127 127
-0.126970 0.861924 -0.069605 153 0 76
-0.106130 0.314380 0.032719 76 153 0
-0.368618 0.024717 0.224067 204 51 127
0.232043 0.578541 -0.139490 153 0 76
-0.178927 -0.090295 0.224067 127 127 0
0.459898 0.583614 -0.046049 76 0 153
-0.433896 0.080330 0.026882 153 0 76
-0.310480 0.881145 -0.161106 153 0 76
-0.448312 0.208177 -0.017918 153 0 76
-0.054043 0.039642 -0.214421 0 255 0
0.255381 0.518230 -0.214421 0 255 0
-0.433896 0.735899 0.176104 153 0 76
0.303290 -0.274010 0.200300 127 0 127
-0.134563 0.578541 0.020307 153 0 76
0.028639 -0.275008 0.224067 0 127 127
0.459898 -0.646600 -0.036030 76 0 153
0.474314 0.120154 0.073574 76 0 153
0.069700 0.805687 -0.219226 255 0 0
-0.398082 0.597763 -0.027690 153 0 76
-0.079541 0.145715 -0.214421 0 255 0
-0.166648 0.155907 0.224067 204 51 127
-0.253998 0.861924 0.194882 153 0 76
-0.187113 0.008636 0.209651 127 127 0
0.474314 -0.725762 -0.193420 76 0 153
-0.140187 0.881145 -0.204479 153 0 76
-0.060484 0.215283 -0.214421 0 255 0
-0.094029 -0.576614 -0.134570 127 127 0
-0.433896 0.201013 -0.202542 153 0 76
0.299915 -0.293232 0.079789 127 0 127
0.110106 0.017782 -0.202301 0 127 127
0.427071 -0.274904 0.224067 0 127 127
0.459898 -0.023587 -0.168739 76 0 153
-0.050309 -0.355165 0.209651 127 127 0
0.101048 -0.293232 0.145965 127 0 127
-0.004465 -0.725145 0.209651 127 127 0
0.152983 -0.001439 0.018641 0 127 127
-0.197004 -0.862400 -0.217776 76 0 153
0.239251 0.858490 -0.219226 255 0 0
-0.433896 -0.272538 0.118216 153 0 76
-0.405989 0.042196 0.209651 204 51 127
0.365918 0.314380 0.089810 76 153 0
0.032642 0.295158 0.098704 76 153 0
-0.287293 0.295158 0.006675 76 153 0
0.350706 0.791142 0.209651 255 0 0
0.152732 -0.576614 0.055975 127 127 0
0.300720 0.597763 0.064145 153 0 76
-0.016390 0.881145 -0.063296 153 0 76
-0.001108 0.780270 -0.233642 255 0 0
0.076510 0.861924 0.040948 153 0 76
0.393571 0.256839 0.209651 255 0 0
0.044763 0.861924 -0.106616 153 0 76
-0.028408 0.314380 -0.048082 76 153 0
0.025477 0.027975 -0.219226 0 255 0
0.020027 0.881145 0.063777 153 0 76
0.320934 0.806486 -0.233642 255 0 0
-0.205586 0.621157 -0.214421 0 255 0
-0.365890 0.154587 -0.219226 0 255 0
0.337093 0.861924 -0.215062 153 0 76
-0.197390 -0.843179 -0.184226 76 0 153
-0.340037 -0.821408 0.209651 127 127 0
0.459898 0.440035 0.023750 76 0 153
0.363825 0.578541 -0.054275 153 0 76
0.453792 -0.504426 -0.214421 0 255 0
-0.101080 0.668015 0.209651 204 51 127
0.091152 -0.274010 0.096091 127 0 127
0.334625 -0.843179 -0.120769 76 0 153
0.119834 -0.737901 0.209651 0 127 127
0.335665 -0.557393 0.138629 127 127 0
0.236797 0.235171 0.209651 255 0 0
0.175258 -0.576614 0.040817 127 127 0
-0.049564 0.615711 0.224067 204 51 127
0.038104 -0.210950 -0.219226 0 255 0
0.265795 0.869026 -0.233642 153 0 76
0.165153 0.113788 -0.219226 0 255 0
-0.183264 0.881145 -0.186059 153 0 76
-0.013043 0.824196 0.209651 204 51 127
0.195790 -0.293232 -0.180102 127 0 127
0.240837 0.597763 -0.181034 153 0 76
0.077365 0.006447 -0.233642 0 0 255
-0.448312 -0.555890 -0.233222 153 0 76
-0.433896 -0.056852 -0.215984 0 255 0
0.186059 -0.576614 0.142324 127 127 0
-0.238483 0.017782 -0.066810 0 127 127
-0.357899 0.697040 -0.214421 0 255 0
-0.139591 -0.647623 0.224067 127 127 0
-0.167479 0.597763 -0.155983 153 0 76
0.474314 0.081023 0.028336 76 0 153
-0.131621 -0.128619 0.209651 127 127 0
-0.028530 0.043144 0.209651 204 51 127
-0.034941 -0.274010 -0.161888 127 0 127
0.241974 -0.267375 -0.219226 0 255 0
-0.250902 -0.576614 -0.031120 127 127 0
-0.098078 -0.862400 -0.133108 76 0 153
0.041101 0.295158 0.019184 76 153 0
-0.048679 -0.557393 -0.014265 127 127 0
0.459898 0.169928 0.088430 76 0 153
0.474314 0.580009 -0.153305 76 0 153
-0.019171 -0.565618 -0.219226 0 255 0
-0.038628 0.506415 0.224067 204 51 127
0.459898 0.638984 -0.090141 76 0 153
-0.305531 0.017782 0.032377 0 127 127
-0.352717 0.861924 -0.123124 153 0 76
-0.130736 0.881145 0.130175 153 0 76
0.374045 0.597763 0.145002 153 0 76
-0.070044 0.298437 0.224067 204 51 127
-0.017512 -0.060234 0.224067 127 127 0
0.302711 -0.184131 0.209651 0 127 127
0.310342 -0.843179 -0.085356 76 0 153
-0.041066 -0.293232 0.113299 127 0 127
-0.003125 -0.490746 -0.219226 0 255 0
0.065836 0.386951 -0.214421 0 255 0
-0.160267 -0.557393 0.156260 127 127 0
0.362340 0.017782 -0.027487 0 127 127
-0.070472 0.017782 -0.156833 0 127 127
0.474314 0.625950 0.206280 76 0 153
0.409906 -0.274010 0.001246 127 0 127
-0.000351 -0.576614 0.022838 127 127 0
-0.211093 0.689913 -0.214421 0 255 0
-0.346263 0.861924 0.077921 153 0 76
0.474314 -0.747400 0.025862 76 0 153
0.206336 0.881145 -0.218981 153 0 76
0.284146 -0.091713 0.209651 0 127 127
-0.154715 0.259036 0.209651 204 51 127
0.408007 0.881145 0.029998 153 0 76
0.265268 -0.656437 0.224067 0 127 127
-0.429993 -0.274010 -0.148309 127 0 127
-0.409514 -0.143923 -0.214421 0 255 0
0.033843 0.404569 0.224067 255 0 0
0.459898 -0.840998 0.110453 76 0 153
-0.082210 0.865863 0.209651 204 51 127
0.155702 -0.253897 -0.214421 0 255 0
-0.163979 0.717153 -0.219226 0 255 0
-0.128435 -0.576614 -0.183669 127 127 0
-0.319889 -0.576614 0.112709 127 127 0
0.341092 0.861924 0.008910 153 0 76
-0.363369 -0.576614 0.023731 127 127 0
-0.118995 -0.209660 0.209651 127 127 0
-0.448312 -0.852446 -0.134742 153 0 76
-0.345577 0.265913 -0.214421 0 255 0
0.459898 -0.169679 0.083278 76 0 153
-0.336050 0.236731 0.209651 204 51 127
-0.384367 -0.557393 0.063460 127 127 0
-0.182938 -0.557393 -0.067214 127 127 0
0.372416 0.017782 -0.144995 0 127 127
-0.448312 -0.101275 -0.131751 153 0 76
0.271418 0.881145 -0.103453 153 0 76
0.180055 0.314380 -0.115544 76 153 0
-0.158196 -0.862400 -0.190753 76 0 153
0.292070 0.201942 -0.219226 0 255 0
0.083258 -0.225390 0.224067 0 127 127
-0.425567 -0.293232 -0.084195 127 0 127
-0.131771 -0.674651 0.209651 127 127 0
0.095908 0.184063 -0.214421 0 255 0
-0.214014 0.578541 -0.155659 153 0 76
-0.044590 -0.223384 -0.214421 0 255 0
0.453046 0.780136 -0.214421 0 255 0
-0.448312 -0.170815 -0.102014 153 0 76
-0.225519 -0.293232 0.015558 127 0 127
0.320180 0.861924 0.184825 153 0 76
-0.163046 -0.843179 -0.147477 76 0 153
-0.300622 -0.350969 -0.219226 0 255 0
-0.339635 -0.557393 -0.087337 127 127 0
0.089749 0.861924 -0.046954 153 0 76
-0.250690 0.528116 0.209651 204 51 127
-0.239495 -0.862400 0.005224 76 0 153
