ply
format ascii 1.0
element vertex 1269
property float x
property float y
property float z
property uchar red
property uchar green
property uchar blue
end_header
-0.433896 0.357697 0.177165 153 0 76
0.005806 -0.553882 0.224067 0 127 127
0.104497 -0.760114 0.224067 0 127 127
0.385173 0.034934 0.224067 255 0 0
-0.337652 0.295158 -0.043282 76 153 0
-0.121763 0.350482 0.224067 204 51 127
-0.055731 0.752569 -0.214421 0 255 0
-0.364257 0.861924 -0.091916 153 0 76
0.214400 0.597763 -0.097658 153 0 76
0.132407 -0.011025 -0.214421 0 0 255
-0.353765 0.017782 0.189066 0 127 127
-0.433896 0.468151 0.158425 153 0 76
0.459898 -0.642399 -0.200258 76 0 153
-0.370122 0.207551 -0.214421 0 255 0
-0.448312 0.162921 0.023701 153 0 76
-0.401646 -0.557393 -0.133385 127 127 0
-0.028543 -0.790647 -0.233642 204 51 127
-0.160751 -0.557393 0.015744 127 127 0
0.379670 0.427113 -0.214421 0 255 0
-0.433896 -0.147217 0.134066 153 0 76
-0.165128 -0.557393 -0.129791 127 127 0
-0.290102 -0.680555 0.224067 127 127 0
-0.240276 0.017782 -0.204730 0 127 127
-0.248775 -0.055190 0.209651 127 127 0
0.148064 0.814303 0.224067 255 0 0
0.231406 0.512582 -0.214421 0 255 0
-0.045497 0.367267 -0.214421 0 255 0
0.370447 -0.843179 -0.054628 76 0 153
-0.173630 -0.077751 0.224067 127 127 0
0.390550 -0.465098 -0.214421 0 255 0
-0.329700 0.314380 0.041570 76 153 0
0.474314 -0.442842 -0.226201 0 255 0
-0.064513 0.295158 -0.008521 76 153 0
-0.448312 -0.580308 0.025739 153 0 76
0.474314 0.277316 -0.118102 76 0 153
0.434813 -0.635471 0.209651 0 127 127
0.107127 -0.391754 0.209651 0 127 127
0.319272 0.314380 0.130657 76 153 0
-0.002827 0.861924 -0.161063 153 0 76
0.026822 -0.557393 0.021441 127 127 0
-0.082922 0.597763 -0.160929 153 0 76
-0.284971 -0.001439 -0.050934 0 127 127
0.459898 -0.588977 -0.025866 76 0 153
-0.448312 -0.822984 0.032648 153 0 76
0.443170 -0.387117 -0.219226 0 255 0
-0.433896 0.175738 -0.037134 153 0 76
-0.139501 -0.862400 0.133407 76 0 153
-0.448312 -0.675163 -0.200022 153 0 76
-0.071113 -0.862400 -0.122031 76 0 153
0.433937 0.861924 -0.114798 153 0 76
-0.416490 0.091645 0.224067 204 51 127
0.250617 -0.843179 0.098871 76 0 153
0.251416 0.881145 0.169726 153 0 76
0.235634 -0.544056 -0.214421 0 255 0
-0.275034 -0.008161 0.224067 127 127 0
-0.013893 -0.286234 0.203644 127 0 127
0.250118 0.605691 0.224067 255 0 0
-0.433896 -0.553051 0.058464 153 0 76
0.030205 -0.843179 -0.110450 76 0 153
-0.448312 0.247338 0.022949 153 0 76
0.276323 -0.263880 0.209651 0 127 127
0.145395 -0.780587 -0.219226 0 255 0
0.397041 0.017782 -0.107662 0 127 127
0.474314 0.543528 0.105603 76 0 153
0.459898 0.158303 -0.066906 76 0 153
0.314625 0.500471 0.224067 255 0 0
0.326671 -0.843179 -0.178174 76 0 153
-0.293541 0.712354 0.209651 204 51 127
-0.063492 0.314380 0.092630 76 153 0
-0.134938 -0.576614 0.027440 127 127 0
0.054872 0.314380 0.002823 76 153 0
0.457344 -0.557393 0.031608 127 127 0
0.057543 0.472196 0.209651 255 0 0
-0.346188 0.017782 0.110386 0 127 127
0.131884 0.314380 -0.072124 76 153 0
0.072062 0.314380 0.070029 76 153 0
0.430995 0.295158 0.003108 76 153 0
0.474314 -0.070295 0.188293 76 0 153
-0.324836 -0.324390 0.224067 127 127 0
0.183280 0.295158 -0.151763 76 153 0
0.426829 -0.862400 -0.033122 76 0 153
-0.448312 -0.300932 -0.178287 153 0 76
-0.011435 0.314380 0.129032 76 153 0
0.291465 -0.422871 0.224067 0 127 127
0.459898 0.251472 -0.081956 76 0 153
-0.448312 -0.344885 0.012364 153 0 76
0.235604 -0.274010 -0.108590 127 0 127
0.291238 0.314380 0.091829 76 153 0
0.059819 -0.293232 0.125466 127 0 127
-0.249655 0.861924 -0.022798 153 0 76
0.019696 -0.862400 0.125440 76 0 153
-0.448312 -0.770495 -0.024147 153 0 76
-0.356485 -0.055170 0.209651 127 127 0
0.432404 -0.557393 -0.055067 127 127 0
0.474314 0.878354 0.065078 76 0 153
0.459898 0.599225 -0.191691 76 0 153
0.091217 0.006930 0.208450 0 127 127
0.459898 0.370338 -0.143539 76 0 153
0.474314 -0.346258 0.169996 76 0 153
0.138817 -0.834687 -0.233642 204 51 127
0.459898 -0.438069 -0.147394 76 0 153
0.441976 -0.843179 0.201180 76 0 153
-0.448312 0.832953 0.000189 153 0 76
0.153056 0.314380 -0.120379 76 153 0
-0.264038 -0.557393 -0.002269 127 127 0
0.474314 -0.299765 -0.160985 76 0 153
0.308694 -0.274010 -0.206670 0 255 0
0.294118 -0.094893 0.224067 0 127 127
-0.433896 0.022931 -0.047810 153 0 76
0.459898 0.802851 -0.001426 76 0 153
-0.112689 -0.253851 0.209651 127 127 0
-0.030393 0.881145 -0.016651 153 0 76
0.459898 0.240551 0.178243 76 0 153
0.121112 0.314380 0.026024 76 153 0
-0.139790 0.440982 -0.219226 0 255 0
0.257249 -0.081631 -0.214421 0 255 0
0.035348 0.040024 -0.219226 0 255 0
0.083460 0.594402 0.224067 255 0 0
0.242228 -0.047620 -0.219226 0 255 0
-0.198895 -0.557393 -0.023761 127 127 0
-0.356799 -0.674995 0.209651 127 127 0
0.330572 -0.001439 0.008627 0 127 127
-0.178251 -0.607294 0.209651 127 127 0
0.197838 -0.685480 0.209651 0 127 127
0.350341 0.492635 -0.219226 0 255 0
0.110595 0.375229 -0.219226 0 255 0
0.230479 0.861924 -0.197814 153 0 76
0.459898 -0.462563 0.002751 76 0 153
0.459898 0.386773 0.027847 76 0 153
-0.367807 -0.293232 -0.181511 127 0 127
-0.448312 -0.617339 0.097459 153 0 76
0.040585 0.091344 -0.219226 0 255 0
-0.397529 0.314380 -0.171242 76 153 0
0.275354 -0.355258 0.209651 0 127 127
-0.336374 -0.274010 -0.025043 127 0 127
0.264562 0.881145 -0.080452 153 0 76
-0.275210 0.881145 -0.151017 153 0 76
-0.359352 -0.557393 -0.013562 127 127 0
0.122027 -0.557393 0.092758 127 127 0
0.138068 -0.576614 -0.167360 127 127 0
0.126550 0.578541 -0.157606 153 0 76
-0.283393 0.881145 -0.031809 153 0 76
-0.142998 0.314380 0.152313 76 153 0
-0.265837 -0.557393 -0.051618 127 127 0
-0.205866 0.556726 0.209651 204 51 127
0.459898 -0.172819 0.193114 76 0 153
-0.087740 -0.221514 0.209651 127 127 0
-0.169007 -0.843179 -0.047167 76 0 153
0.074747 0.314380 -0.107991 76 153 0
0.435704 -0.843179 -0.165636 76 0 153
0.459898 -0.511190 -0.007171 76 0 153
-0.113267 -0.274010 0.104941 127 0 127
0.447567 -0.672322 -0.214421 0 255 0
0.318793 0.017782 0.183530 0 127 127
0.099138 -0.557393 0.183900 127 127 0
0.225371 0.105014 0.209651 255 0 0
0.474314 0.716360 -0.163909 76 0 153
0.073398 0.289414 0.224067 255 0 0
0.450098 0.072073 -0.214421 76 0 153
0.459898 0.282030 0.111375 76 0 153
0.282367 0.866965 -0.233642 153 0 76
-0.010221 0.295158 0.012556 76 153 0
0.049283 0.295158 -0.081870 76 153 0
0.061311 0.597763 0.181045 153 0 76
-0.360995 -0.777934 -0.233642 204 51 127
-0.010434 0.131441 0.209651 204 51 127
0.155326 -0.274010 -0.148604 127 0 127
0.076742 0.821853 -0.233642 0 255 0
0.023313 0.840922 -0.214421 0 255 0
-0.288657 -0.679046 -0.219226 0 255 0
-0.410168 0.333956 -0.214421 0 255 0
0.332722 0.881145 0.153250 153 0 76
0.459898 0.723419 -0.098780 76 0 153
0.474314 0.605407 0.013195 76 0 153
-0.217958 0.295158 -0.024749 76 153 0
-0.381936 0.295158 0.152216 76 153 0
-0.419333 -0.745067 0.209651 127 127 0
0.244167 -0.001439 -0.090371 0 127 127
-0.143217 0.655793 0.209651 204 51 127
-0.448312 0.160572 -0.107160 153 0 76
-0.318299 0.039134 -0.233642 0 255 0
-0.377476 0.009831 -0.212018 0 255 0
0.459898 -0.351290 -0.189274 76 0 153
0.092824 -0.862400 -0.151972 76 0 153
0.122039 -0.117301 -0.219226 0 255 0
0.268138 -0.862400 -0.119277 76 0 153
-0.046254 -0.576614 0.119853 127 127 0
-0.103607 0.796503 -0.233642 255 0 0
0.256745 -0.197053 -0.219226 0 255 0
0.364612 0.592112 0.224067 255 0 0
0.211314 0.357224 -0.219226 0 255 0
0.469321 -0.547239 -0.233642 76 0 153
0.459898 -0.410049 0.166664 76 0 153
0.139442 -0.120658 0.224067 0 127 127
-0.065764 -0.783500 0.209651 127 127 0
0.058426 -0.692060 -0.219226 0 255 0
-0.433896 -0.813085 0.098588 153 0 76
-0.433896 -0.262116 0.013952 153 0 76
0.357353 -0.862400 0.185739 76 0 153
-0.099644 0.295158 -0.138632 76 153 0
0.284292 -0.319628 0.209651 0 127 127
0.027957 0.578541 0.157765 153 0 76
-0.433896 -0.500142 -0.156463 153 0 76
0.189878 -0.170010 0.224067 0 127 127
0.474314 0.389884 -0.076181 76 0 153
-0.062797 -0.631170 0.224067 127 127 0
0.088014 0.314380 -0.047113 76 153 0
0.142750 -0.843179 0.198900 76 0 153
0.330296 -0.194026 0.224067 0 127 127
-0.133504 -0.862400 -0.086642 76 0 153
0.189423 -0.557393 0.134870 127 127 0
-0.275917 0.780526 0.224067 204 51 127
0.274035 0.820951 -0.219226 0 255 0
-0.104097 0.102339 -0.219226 0 255 0
-0.448312 0.224586 0.089039 153 0 76
0.043114 0.295158 -0.025810 76 153 0
-0.384227 0.104936 -0.219226 0 255 0
-0.448312 0.244160 -0.046159 153 0 76
-0.053300 -0.862400 -0.025699 76 0 153
-0.448312 -0.400642 -0.024780 153 0 76
-0.115840 0.231447 0.224067 204 51 127
-0.448312 -0.074589 -0.043316 153 0 76
-0.232210 0.314380 -0.092271 76 153 0
0.474314 -0.116066 -0.108098 76 0 153
-0.239367 0.275134 -0.219226 0 255 0
0.469745 -0.862400 0.130334 76 0 153
-0.448312 0.001353 -0.197551 153 0 76
0.404402 -0.293232 0.061857 127 0 127
0.081637 -0.798974 -0.214421 0 255 0
-0.105692 -0.001439 -0.022622 0 127 127
-0.216660 -0.862400 0.098049 76 0 153
-0.019970 0.335625 0.209651 204 51 127
-0.433896 0.779808 0.140482 153 0 76
-0.329940 0.381775 0.209651 204 51 127
-0.433896 -0.821257 -0.057952 153 0 76
0.066826 0.254625 -0.214421 0 255 0
-0.050882 0.190504 0.224067 204 51 127
0.307285 0.295158 -0.159860 76 153 0
0.398165 -0.683596 -0.214421 0 255 0
-0.272215 -0.274010 -0.136912 127 0 127
0.392438 0.088895 -0.214421 0 255 0
-0.419748 0.339271 0.209651 204 51 127
0.407573 -0.333552 -0.214421 0 255 0
-0.285838 0.881145 0.163693 153 0 76
0.275517 0.597763 0.171216 153 0 76
-0.239922 -0.632909 0.209651 127 127 0
0.038605 0.141993 -0.214421 0 255 0
0.281495 -0.274010 0.141554 127 0 127
-0.401713 0.295158 -0.119206 76 153 0
0.407162 -0.458576 0.209651 0 127 127
-0.419047 -0.843179 0.026202 76 0 153
0.459898 -0.392417 0.059745 76 0 153
-0.367389 0.840514 -0.219226 0 255 0
0.427599 0.730902 0.224067 255 0 0
0.086378 -0.039502 -0.214421 0 255 0
0.380330 0.774359 0.224067 255 0 0
-0.215354 0.373953 0.209651 204 51 127
-0.135693 -0.862400 0.189021 76 0 153
0.185688 -0.293232 -0.186934 127 0 127
-0.332882 0.597763 0.048367 153 0 76
-0.127969 0.825939 -0.219226 0 255 0
-0.156547 -0.576614 -0.072314 127 127 0
0.446801 -0.274010 -0.148373 76 0 153
0.459898 -0.688733 0.005185 76 0 153
0.278655 -0.293232 0.039214 127 0 127
-0.367456 0.697172 0.209651 204 51 127
-0.183079 0.852160 -0.214421 0 255 0
0.376084 0.578541 -0.157651 153 0 76
0.272300 -0.293232 -0.010528 127 0 127
-0.448312 -0.035246 -0.232238 153 0 76
0.399442 -0.862400 -0.002849 76 0 153
-0.164693 -0.001439 -0.157077 0 127 127
-0.117470 -0.557393 0.201425 127 127 0
-0.445404 0.280224 0.224067 204 51 127
0.321901 -0.762481 0.209651 0 127 127
0.107146 -0.536566 0.224067 0 127 127
-0.029701 0.032198 0.247424 0 0 255
-0.394056 0.405939 0.209651 204 51 127
0.016486 -0.747072 -0.231919 0 255 0
-0.415438 0.597763 -0.152280 153 0 76
0.474314 -0.719827 0.090723 76 0 153
-0.050580 -0.712233 0.209651 127 127 0
0.221363 -0.001439 0.066896 0 127 127
0.474314 0.224627 -0.019601 76 0 153
-0.299434 0.017782 0.072215 0 127 127
0.459898 0.345281 0.099943 76 0 153
0.274517 -0.843179 0.182514 76 0 153
0.459898 0.551432 -0.013583 76 0 153
0.174892 0.714290 -0.214421 0 255 0
-0.320589 0.385743 -0.219226 0 255 0
-0.134442 0.578541 0.061505 153 0 76
0.460833 -0.256561 0.208450 0 127 127
-0.006405 0.295158 0.196104 76 153 0
-0.291818 -0.293232 0.075357 127 0 127
0.474314 0.153138 0.036019 76 0 153
0.187580 0.314380 0.192273 76 153 0
0.000056 0.578541 0.200087 153 0 76
-0.094879 -0.001439 0.144687 0 127 127
0.474314 -0.354249 0.003396 76 0 153
0.258694 0.597763 -0.160827 153 0 76
-0.292400 0.048953 0.209651 204 51 127
0.269028 0.861924 0.054875 153 0 76
0.028314 -0.545510 -0.219226 0 255 0
-0.433896 0.564113 -0.063403 153 0 76
-0.370318 -0.280804 0.224067 127 127 0
-0.169193 0.861924 -0.035238 153 0 76
0.220163 -0.843179 0.023570 76 0 153
-0.131207 0.017782 0.091233 0 127 127
0.414727 -0.001439 0.093441 0 127 127
0.222817 -0.576614 -0.042360 127 127 0
0.459898 -0.199853 0.135134 76 0 153
-0.207145 0.195461 -0.214421 0 255 0
-0.417307 0.049937 -0.214421 0 255 0
-0.313639 -0.787781 -0.233642 204 51 127
-0.189526 -0.086798 -0.219226 0 255 0
-0.048191 -0.237968 -0.214421 0 255 0
-0.384392 0.578541 0.102001 153 0 76
0.268127 0.597763 0.091220 153 0 76
0.317375 -0.557393 0.129061 127 127 0
-0.448312 0.575492 0.082271 153 0 76
0.235309 0.861924 -0.073466 153 0 76
0.207746 -0.843179 -0.011462 76 0 153
-0.229316 0.881145 0.008395 153 0 76
0.416662 -0.843179 0.049283 76 0 153
0.022737 -0.843179 0.188318 76 0 153
0.128965 -0.196392 -0.219226 0 255 0
-0.016897 0.807718 0.209651 204 51 127
-0.067916 -0.533349 0.224067 127 127 0
-0.433896 -0.158992 0.054291 153 0 76
-0.006935 -0.274010 0.058269 127 0 127
-0.300662 0.017782 -0.197114 0 127 127
0.339561 -0.000126 -0.219226 0 0 255
0.474314 -0.037056 -0.196026 76 0 153
-0.433896 -0.672835 -0.082785 153 0 76
-0.448312 -0.473442 -0.100188 153 0 76
0.261681 0.818654 0.224067 255 0 0
-0.230456 -0.725585 -0.214421 0 255 0
-0.433896 -0.669436 -0.007966 153 0 76
-0.022822 0.275636 0.248922 0 0 255
0.399953 0.017782 -0.057978 0 127 127
-0.365733 0.578541 -0.173357 153 0 76
0.360568 -0.128192 0.224067 0 127 127
-0.130242 -0.632396 0.209651 127 127 0
0.312758 -0.843179 0.174212 76 0 153
-0.260089 0.314380 0.126115 76 153 0
-0.149954 0.314380 -0.000926 76 153 0
-0.173142 0.578541 -0.118913 153 0 76
-0.113432 0.783723 0.224067 204 51 127
0.352606 -0.053187 -0.214421 0 255 0
0.159614 0.607513 -0.219226 153 0 76
0.474314 0.544971 0.151353 76 0 153
0.448541 0.837997 -0.233642 255 0 0
0.358162 -0.840508 -0.233642 0 255 0
-0.321417 0.017782 -0.145236 0 127 127
-0.114976 0.017782 -0.063551 0 127 127
0.183773 0.461677 -0.214421 0 255 0
-0.262010 -0.862400 -0.147670 76 0 153
0.311778 0.198440 -0.214421 0 255 0
0.410519 0.870196 0.224067 255 0 0
0.297114 0.597763 -0.195314 153 0 76
-0.176914 0.881145 -0.092538 153 0 76
-0.021870 -0.293232 -0.168595 127 0 127
-0.138244 0.504945 -0.214421 0 255 0
-0.087716 0.850008 0.209651 204 51 127
0.474314 -0.704536 0.048072 76 0 153
-0.063386 -0.157213 0.224067 127 127 0
-0.423817 0.017782 0.045838 0 127 127
-0.299635 -0.862400 -0.196260 76 0 153
0.016375 0.628532 -0.214421 0 255 0
0.446393 0.136461 0.209651 255 0 0
0.474314 -0.329210 -0.033128 76 0 153
0.459514 0.314380 0.072562 76 0 153
0.178867 -0.557393 0.192334 127 127 0
-0.303854 -0.576614 0.132125 127 127 0
0.029286 0.591396 -0.219226 0 255 0
-0.003399 0.151681 -0.219226 0 255 0
-0.190482 -0.488592 0.209651 127 127 0
-0.401787 0.233333 0.224067 204 51 127
-0.448312 0.437699 -0.151058 153 0 76
0.474314 -0.506971 -0.058110 76 0 153
0.241723 0.597763 0.189371 153 0 76
-0.283256 -0.226332 -0.219226 0 255 0
0.191833 -0.557393 0.090738 127 127 0
0.108171 -0.675429 -0.214421 0 255 0
0.361509 -0.862400 0.142498 76 0 153
0.053392 -0.641933 -0.214421 0 255 0
-0.235863 0.017782 0.207865 204 51 127
0.421228 0.048554 0.224067 255 0 0
-0.230887 0.861924 0.092844 153 0 76
0.474314 0.341259 0.015426 76 0 153
0.011800 -0.616416 0.215630 127 127 0
0.384366 -0.576614 -0.207150 0 255 0
0.474314 -0.798655 -0.098083 76 0 153
-0.284562 0.597763 0.139651 153 0 76
-0.351626 -0.416535 0.224067 127 127 0
0.400706 0.592376 -0.219226 0 255 0
-0.362815 0.565873 -0.219226 0 255 0
0.018893 -0.719381 0.224067 0 127 127
-0.201593 -0.484807 -0.219226 0 255 0
-0.212737 0.017782 -0.014593 0 127 127
-0.283132 -0.862400 0.177150 76 0 153
-0.448312 -0.279592 -0.208841 127 0 127
0.249003 0.314380 -0.155844 76 153 0
-0.041523 -0.843179 0.056520 76 0 153
0.459898 0.840524 -0.132397 76 0 153
-0.213073 0.792886 0.224067 204 51 127
0.131316 0.142491 -0.214421 0 255 0
-0.433896 0.622951 -0.169523 153 0 76
-0.131642 0.295158 -0.174257 76 153 0
-0.414739 0.881145 -0.231538 153 0 76
0.013430 -0.001439 -0.026905 0 127 127
-0.016783 0.881145 0.219423 204 51 127
-0.052598 -0.843179 0.193160 76 0 153
0.260572 -0.576614 0.126515 127 127 0
0.087163 0.881145 -0.120766 153 0 76
-0.250680 -0.853024 0.224067 127 127 0
0.459898 0.708511 -0.052533 76 0 153
0.077990 0.779307 0.224067 255 0 0
0.441296 -0.730717 -0.219226 0 255 0
-0.356002 -0.794503 0.209651 127 127 0
0.474314 0.491207 -0.001641 76 0 153
-0.354176 -0.222678 -0.214421 0 255 0
0.438385 0.030583 -0.219226 0 255 0
0.152608 0.038681 -0.214421 0 255 0
-0.163134 0.109064 0.224067 204 51 127
-0.292217 0.314380 0.057508 76 153 0
0.459898 0.348303 -0.169076 76 0 153
-0.226856 0.132603 0.224067 204 51 127
-0.448312 0.488800 -0.091371 153 0 76
0.350906 -0.293232 -0.071700 127 0 127
-0.433896 0.604406 -0.200777 153 0 76
-0.448312 0.693985 0.003494 153 0 76
0.180990 -0.274010 -0.089390 127 0 127
-0.166331 0.551611 0.224067 204 51 127
-0.136140 0.230666 -0.219226 0 255 0
-0.355308 0.440752 -0.219226 0 255 0
-0.060402 0.861924 0.188593 153 0 76
-0.434071 0.145340 0.209651 127 0 127
0.269720 0.881145 -0.028336 153 0 76
-0.247275 -0.593321 -0.219226 0 255 0
0.140398 -0.591915 0.209651 127 127 0
-0.433896 0.259750 0.072312 153 0 76
-0.404296 0.295158 -0.065619 76 153 0
-0.087687 0.257194 -0.219226 0 255 0
-0.291868 -0.080985 0.224067 127 127 0
0.321270 0.861924 -0.082116 153 0 76
-0.200125 0.861924 0.059445 153 0 76
-0.073213 0.041729 -0.219226 0 0 255
-0.062926 -0.274010 0.181841 127 0 127
0.130786 -0.293232 0.095741 127 0 127
0.474314 -0.116407 0.158186 76 0 153
-0.279680 0.440702 0.224067 204 51 127
0.083620 0.614324 -0.219226 0 255 0
-0.378752 0.344117 -0.214421 0 255 0
-0.088322 0.734857 -0.214421 0 255 0
-0.335300 -0.557393 -0.124565 127 127 0
0.002869 0.578541 -0.121436 153 0 76
0.473113 0.785851 0.212837 255 0 0
0.459898 0.729649 -0.229814 0 255 0
0.138863 0.396059 -0.219226 0 255 0
0.448645 0.597763 0.139340 76 0 153
-0.084923 -0.669357 -0.214421 0 255 0
-0.332637 -0.142404 -0.219226 0 255 0
0.244384 -0.291279 -0.214421 127 0 127
0.153956 0.017782 -0.083262 0 127 127
-0.299287 -0.828411 0.209651 76 0 153
-0.139482 -0.500188 -0.219226 0 255 0
0.021824 -0.426129 -0.214421 0 255 0
-0.277219 0.017782 0.007903 0 127 127
0.144030 0.295158 -0.000788 76 153 0
-0.415684 -0.293232 0.081340 127 0 127
-0.200001 -0.293232 0.154505 127 0 127
-0.419088 -0.264168 0.209651 127 127 0
0.245659 0.861924 -0.167160 153 0 76
-0.433896 -0.344877 0.180211 153 0 76
0.474314 -0.153210 0.029565 76 0 153
0.335112 -0.274010 -0.126929 127 0 127
-0.201924 0.314092 -0.219226 0 255 0
-0.433896 0.136664 0.149303 153 0 76
-0.139541 0.881145 -0.068790 153 0 76
-0.439599 0.881145 0.121051 153 0 76
0.276391 0.209736 0.224067 255 0 0
-0.448312 0.050917 -0.190937 153 0 76
-0.283790 -0.274010 0.005178 127 0 127
-0.433896 0.448831 0.186301 153 0 76
-0.275392 0.283653 -0.214421 0 255 0
-0.433896 0.067935 0.016694 153 0 76
0.334905 -0.862400 0.039544 76 0 153
0.459898 -0.462352 -0.053053 76 0 153
-0.177129 -0.576614 -0.098224 127 127 0
-0.011794 0.881145 0.147417 153 0 76
-0.201337 -0.843179 0.189660 76 0 153
-0.077846 0.314380 0.144397 76 153 0
-0.136834 0.548148 0.209651 204 51 127
-0.391862 -0.038681 -0.233225 0 0 255
0.023119 -0.843179 -0.153074 76 0 153
0.474314 -0.525079 0.083876 76 0 153
0.428497 0.314380 0.114848 76 153 0
0.096758 0.134222 -0.219226 0 255 0
-0.350568 0.881145 0.093483 153 0 76
-0.396961 0.881145 0.029031 153 0 76
-0.093596 -0.293232 0.191745 127 0 127
0.265472 0.295158 0.158348 76 153 0
0.385162 -0.850722 0.224067 76 0 153
-0.308350 0.578541 -0.088050 153 0 76
0.372781 -0.862400 -0.112756 76 0 153
-0.320504 -0.859997 0.222715 127 127 0
-0.351857 0.881145 0.160720 153 0 76
0.091843 0.597763 -0.076766 153 0 76
0.183698 0.680484 0.224067 255 0 0
-0.087480 -0.550541 -0.214421 0 255 0
0.191426 0.861924 -0.230900 255 0 0
-0.227298 0.686848 0.209651 204 51 127
-0.433896 0.384848 -0.198099 153 0 76
-0.415005 0.861924 0.161890 153 0 76
-0.362209 -0.862400 -0.082769 76 0 153
-0.048260 0.578541 0.194714 153 0 76
-0.403225 -0.576614 -0.078541 127 127 0
-0.293308 0.861924 0.037426 153 0 76
-0.098434 -0.756639 0.209651 127 127 0
-0.009199 0.578541 0.060379 153 0 76
-0.030598 -0.561431 0.224067 127 127 0
-0.409381 -0.274010 0.159362 127 0 127
0.305771 -0.507021 -0.214421 0 255 0
0.474314 -0.816978 -0.161976 76 0 153
-0.225633 -0.662321 -0.219226 0 255 0
0.459898 0.126838 0.083231 76 0 153
0.434703 -0.427796 -0.219226 0 255 0
0.296500 0.043844 0.224067 255 0 0
-0.371244 0.314380 0.038760 76 153 0
0.459898 -0.370789 0.125805 76 0 153
0.130597 0.818580 -0.233642 255 0 0
-0.397560 0.295158 -0.033181 76 153 0
-0.413258 -0.293232 -0.020631 127 0 127
0.331035 0.384695 0.224067 255 0 0
-0.261356 0.597763 0.015497 153 0 76
0.393862 -0.140086 -0.219226 0 255 0
0.289425 -0.021647 0.209651 0 127 127
-0.184366 -0.522339 0.224067 127 127 0
0.357925 -0.557393 -0.196171 127 127 0
-0.126041 -0.001439 0.040244 0 127 127
-0.433896 0.774981 0.083183 153 0 76
-0.216713 0.861924 -0.199104 153 0 76
0.095099 0.779817 -0.233642 0 255 0
0.245771 -0.576614 0.184736 127 127 0
0.281758 0.881145 0.086290 153 0 76
-0.268499 0.597763 0.106508 153 0 76
-0.446501 -0.395754 -0.233642 153 0 76
0.163395 -0.274010 0.141701 127 0 127
0.127205 -0.700069 0.224067 0 127 127
0.376478 0.578541 -0.080524 153 0 76
0.474314 0.033186 0.099874 76 0 153
-0.448312 -0.133069 -0.140218 153 0 76
0.267442 -0.662954 -0.219226 0 255 0
-0.199515 0.454409 -0.214421 0 255 0
-0.126261 -0.142001 0.224067 127 127 0
0.459898 0.369227 -0.199740 76 0 153
0.406871 -0.293232 0.163229 127 0 127
0.171804 0.304470 -0.219226 76 153 0
0.165430 0.105108 0.224067 255 0 0
0.370890 -0.843179 0.012909 76 0 153
-0.448312 -0.404983 0.194496 153 0 76
0.205720 -0.586210 -0.219226 0 255 0
0.269987 -0.516913 0.209651 0 127 127
-0.212628 0.295158 0.165704 76 153 0
0.282006 -0.622254 0.209651 0 127 127
0.088688 -0.001439 -0.048860 0 127 127
0.470866 0.881145 -0.198118 76 0 153
0.236644 -0.576614 0.050703 127 127 0
0.207093 -0.651825 -0.214421 0 255 0
0.381688 0.578541 0.138701 153 0 76
0.081659 -0.557393 -0.157812 127 127 0
-0.168996 0.318412 -0.219226 0 255 0
-0.013490 0.597763 -0.075082 153 0 76
-0.182534 0.034885 0.209651 204 51 127
0.117749 -0.557393 -0.070162 127 127 0
-0.222370 0.839347 0.209651 204 51 127
-0.290158 0.017782 0.119796 0 127 127
0.474314 -0.837955 0.171411 76 0 153
-0.448312 -0.012130 -0.145520 153 0 76
0.201527 -0.843179 -0.174361 76 0 153
0.415039 0.094699 0.224067 255 0 0
0.309639 0.314380 -0.096890 76 153 0
-0.108978 -0.819407 0.224067 127 127 0
-0.433896 -0.723245 -0.111470 153 0 76
-0.433896 -0.310527 -0.068730 153 0 76
0.161373 -0.843179 -0.203013 0 255 0
0.459898 0.089747 0.029815 76 0 153
-0.159149 0.017782 -0.054341 0 127 127
0.125399 0.314380 -0.143079 76 153 0
-0.008785 -0.001439 0.125048 0 127 127
0.474314 0.616943 -0.113585 76 0 153
0.145616 0.578541 0.045986 153 0 76
0.141741 0.017782 0.109209 0 127 127
-0.101703 -0.576614 -0.159710 127 127 0
-0.311110 -0.293232 0.114942 127 0 127
0.040983 -0.557393 -0.055109 127 127 0
-0.332269 0.861924 -0.048562 153 0 76
0.267894 0.466471 0.224067 255 0 0
0.200615 -0.482894 0.224067 0 127 127
0.120041 -0.436768 0.224067 0 127 127
0.188769 -0.576614 0.003648 127 127 0
-0.190069 0.578541 0.068938 153 0 76
0.438887 0.861924 -0.148440 153 0 76
-0.251517 0.784084 -0.233642 255 0 0
-0.448312 0.529621 0.049806 153 0 76
0.127903 0.435061 -0.219226 0 255 0
0.075242 -0.113989 0.224067 0 127 127
-0.334739 0.578541 -0.000954 153 0 76
0.439416 -0.515435 -0.214421 0 255 0
0.293676 0.523688 -0.214421 0 255 0
-0.034793 -0.293232 -0.044011 127 0 127
0.474314 -0.194647 -0.174510 76 0 153
0.000183 -0.843179 -0.063925 76 0 153
0.066309 -0.274010 -0.081442 127 0 127
-0.433896 -0.099429 0.178450 153 0 76
0.372937 -0.576614 -0.009237 127 127 0
0.467171 -0.180921 -0.233642 76 0 153
-0.038570 -0.293232 0.163561 127 0 127
-0.388055 -0.204494 0.209651 127 127 0
-0.286561 -0.739290 -0.219226 204 51 127
-0.268276 0.295158 -0.046335 76 153 0
-0.096381 -0.860775 -0.233642 76 0 153
0.157606 -0.557393 0.051157 127 127 0
0.364436 0.578541 -0.029919 153 0 76
0.042453 0.578541 0.003864 153 0 76
0.459898 0.018320 -0.118733 76 0 153
-0.354364 0.559166 0.224067 204 51 127
0.420387 0.628394 0.209651 255 0 0
0.136687 0.881145 0.156373 153 0 76
-0.343568 0.661083 -0.219226 0 255 0
-0.266525 -0.576614 0.082700 127 127 0
-0.162360 0.191372 -0.214421 0 255 0
0.459898 0.337728 0.186921 76 0 153
0.388658 0.142846 0.224067 255 0 0
0.459898 0.677189 0.085324 76 0 153
0.474314 0.534912 -0.040431 76 0 153
0.474314 0.010525 0.010980 76 0 153
-0.030081 0.044675 0.209651 204 51 127
-0.316165 0.314380 0.194524 76 153 0
0.075648 -0.189916 0.224067 0 127 127
0.314543 -0.275098 0.203644 127 0 127
0.322468 0.881145 0.223365 255 0 0
0.079972 0.597763 -0.019239 153 0 76
0.256698 0.531640 -0.219226 0 255 0
-0.433896 0.296969 -0.226358 0 255 0
-0.433896 0.513137 -0.187166 153 0 76
0.132477 0.578541 -0.001651 153 0 76
0.303879 -0.680733 0.224067 0 127 127
-0.225849 0.881145 -0.121176 153 0 76
-0.448312 0.806006 0.183365 153 0 76
-0.110899 -0.352157 0.209651 127 127 0
0.368790 0.201086 0.224067 255 0 0
0.000900 0.568262 -0.219226 0 255 0
-0.448312 -0.730869 0.017111 153 0 76
0.474314 0.637407 0.012519 76 0 153
-0.207357 0.295158 -0.174492 76 153 0
-0.049121 -0.274010 0.019424 127 0 127
-0.366063 -0.001439 0.041992 0 127 127
0.004008 -0.576614 0.102900 127 127 0
-0.239917 -0.430333 0.224067 127 127 0
-0.448312 -0.369527 -0.193367 153 0 76
-0.333326 -0.557393 -0.060917 127 127 0
0.459898 -0.164648 0.090675 76 0 153
0.295705 -0.001439 0.160539 0 127 127
0.451652 -0.557393 -0.026034 127 127 0
0.405851 -0.557393 0.138401 127 127 0
0.284830 -0.721903 -0.214421 0 255 0
0.113972 0.017782 -0.114577 0 127 127
0.419269 -0.576614 0.184705 127 127 0
0.330513 0.722822 0.224067 255 0 0
0.474314 -0.401417 -0.045979 76 0 153
-0.000227 -0.573670 -0.214421 0 255 0
-0.253734 0.403550 -0.214421 0 255 0
-0.419995 0.635992 0.209651 204 51 127
0.169156 -0.601121 -0.219226 0 255 0
0.147495 0.765817 -0.229362 255 0 0
0.335317 0.816167 0.224067 255 0 0
-0.165824 0.434419 0.209651 204 51 127
0.056414 -0.281208 0.245911 76 153 0
-0.426623 0.196639 0.224067 204 51 127
0.155125 -0.557393 0.152066 127 127 0
0.142871 -0.286636 -0.219226 127 0 127
-0.074366 0.409124 0.224067 204 51 127
-0.433896 0.028676 0.199302 0 127 127
-0.295630 0.436419 -0.214421 0 255 0
0.285866 0.861924 -0.168196 153 0 76
0.459898 -0.589917 -0.064985 76 0 153
0.100526 -0.862400 0.082760 76 0 153
-0.447110 0.538672 0.220132 153 0 76
-0.448312 -0.322751 0.155416 153 0 76
-0.217564 -0.323411 0.209651 127 127 0
0.355693 -0.001439 0.087259 0 127 127
0.235500 -0.843179 0.205422 0 127 127
0.444197 0.840600 0.224067 255 0 0
-0.433896 -0.292157 0.055171 127 0 127
-0.433896 0.116250 -0.028143 153 0 76
-0.326938 0.080765 -0.214421 0 255 0
0.255386 0.110809 -0.214421 0 255 0
0.151639 -0.374266 0.209651 0 127 127
0.278031 -0.001439 -0.007055 0 127 127
-0.433896 -0.212853 0.134719 153 0 76
-0.448312 0.450735 -0.039142 153 0 76
-0.323895 0.597763 0.196080 153 0 76
0.459898 -0.803852 0.110558 76 0 153
-0.448312 0.756718 0.197618 204 51 127
0.474314 -0.660676 0.190475 76 0 153
-0.401436 -0.843179 0.078428 76 0 153
0.223955 0.706436 0.224067 255 0 0
-0.242826 -0.193588 -0.219226 0 255 0
-0.264069 -0.576614 0.114430 127 127 0
-0.032208 0.751590 0.209651 204 51 127
-0.281566 0.881145 0.195225 153 0 76
-0.210226 -0.843179 0.070107 76 0 153
0.220550 -0.274010 0.006114 127 0 127
-0.433896 0.876421 0.183921 153 0 76
0.398991 -0.862400 -0.078374 76 0 153
-0.223824 0.597763 0.116035 153 0 76
-0.043003 0.017782 0.161488 0 127 127
0.473113 0.313926 0.219957 255 0 0
-0.081538 -0.843179 -0.039949 76 0 153
0.296282 -0.840217 0.224067 0 127 127
-0.316404 -0.829693 -0.233642 76 0 153
0.067706 0.017782 0.008203 0 127 127
-0.433896 -0.791043 0.202609 127 0 127
-0.321768 0.578541 -0.157020 153 0 76
-0.233261 0.017782 0.116676 0 127 127
-0.200069 -0.843179 -0.069591 76 0 153
-0.313768 0.533171 0.224067 204 51 127
-0.166411 -0.293232 0.158962 127 0 127
0.459898 -0.016339 -0.232517 76 0 153
-0.025764 0.314380 -0.100481 76 153 0
0.459898 -0.162386 0.145312 76 0 153
0.199354 -0.001439 0.157684 0 127 127
0.459898 -0.772718 0.172502 76 0 153
0.162073 -0.624515 0.209651 0 127 127
-0.108115 0.597763 -0.071706 153 0 76
-0.306102 -0.572069 0.203644 127 127 0
-0.074310 0.230421 0.224067 204 51 127
-0.448312 -0.075557 -0.109401 153 0 76
-0.112031 -0.319206 0.209651 127 127 0
0.104271 0.255396 0.224067 255 0 0
0.474314 -0.662027 0.089196 76 0 153
-0.448312 0.090220 -0.189217 153 0 76
0.459898 0.211347 0.057223 76 0 153
0.014203 0.784502 0.212293 255 0 0
0.364383 0.644268 -0.219226 0 255 0
0.210265 0.597763 0.162020 153 0 76
0.474314 0.147261 0.193103 76 0 153
0.307500 -0.274010 -0.160885 127 0 127
0.323751 -0.843179 -0.023920 76 0 153
0.048952 0.815169 0.209651 255 0 0
0.142688 0.881145 -0.202470 153 0 76
-0.006565 0.861924 -0.069670 153 0 76
0.164402 -0.130477 -0.219226 0 255 0
0.202040 0.314380 -0.097815 76 153 0
0.459898 -0.228278 0.151132 76 0 153
0.137454 0.881145 0.095181 153 0 76
0.225212 -0.029167 0.209651 0 127 127
0.087964 -0.585482 0.224067 0 127 127
-0.319956 -0.489507 0.209651 127 127 0
0.459898 -0.609442 0.075674 76 0 153
-0.123920 -0.717912 -0.214421 0 255 0
-0.181864 0.151926 0.209651 204 51 127
0.059156 0.881145 -0.149223 153 0 76
-0.310606 -0.293232 -0.045722 127 0 127
0.331252 -0.576614 -0.151060 127 127 0
0.332639 -0.672475 -0.219226 0 255 0
0.459898 -0.793630 -0.041140 76 0 153
0.474314 0.748303 -0.034170 76 0 153
-0.448312 0.782483 -0.097917 153 0 76
-0.318097 0.881145 -0.220220 153 0 76
0.056424 0.861924 0.006887 153 0 76
-0.184106 0.881145 0.180792 153 0 76
0.019966 0.314380 0.047361 76 153 0
-0.225401 -0.260652 0.209651 127 127 0
0.446750 0.467762 -0.214421 0 255 0
-0.433896 -0.369499 -0.091017 153 0 76
-0.433896 -0.543631 -0.197659 153 0 76
-0.433896 0.880588 -0.166665 153 0 76
-0.267522 0.881145 -0.120081 153 0 76
0.101385 -0.293232 0.117294 127 0 127
0.209399 -0.755554 -0.233642 204 51 127
0.404809 -0.293232 -0.044439 127 0 127
-0.448312 0.124800 -0.147679 153 0 76
0.332103 -0.001947 0.209651 0 127 127
-0.100677 0.314380 0.053344 76 153 0
0.334504 0.017782 0.041090 0 127 127
0.336463 -0.557393 -0.072874 127 127 0
-0.295042 0.207761 0.209651 204 51 127
0.331874 -0.731310 -0.214421 0 255 0
-0.448312 0.633447 -0.232059 153 0 76
-0.334086 0.416462 0.209651 204 51 127
-0.203255 -0.576614 -0.172942 127 127 0
-0.073618 -0.214156 -0.219226 0 255 0
0.474314 0.756810 0.189395 76 0 153
0.354185 -0.695851 0.224067 0 127 127
-0.421980 0.857605 0.224067 204 51 127
-0.433896 -0.355916 -0.046179 153 0 76
0.185725 -0.274010 -0.024978 127 0 127
-0.321600 0.721090 -0.214421 0 255 0
-0.363777 -0.381640 -0.214421 0 255 0
-0.046822 -0.557393 0.091407 127 127 0
-0.448312 0.648519 0.200907 153 0 76
-0.448312 -0.786709 0.144546 153 0 76
0.195873 0.597763 -0.191264 153 0 76
0.209215 0.597763 0.064219 153 0 76
0.459898 -0.636118 0.033924 76 0 153
-0.156117 -0.598025 -0.219226 0 255 0
-0.305976 -0.293232 -0.109339 127 0 127
0.263344 -0.709744 0.224067 0 127 127
-0.024679 0.314380 -0.183669 76 153 0
-0.228798 -0.097376 0.209651 127 127 0
0.289242 -0.566407 0.203644 0 127 127
-0.243022 0.175197 0.224067 204 51 127
-0.352314 -0.743914 0.209651 127 127 0
0.228223 0.314380 0.194322 76 153 0
-0.177012 -0.804875 0.224067 127 127 0
-0.184360 0.369692 0.224067 204 51 127
0.415135 0.314380 0.147292 76 153 0
-0.283327 0.567545 -0.214421 0 255 0
0.224746 0.861924 0.099217 153 0 76
-0.051712 0.789308 0.224067 204 51 127
0.411235 -0.576614 0.027557 127 127 0
-0.448312 -0.719633 -0.082344 153 0 76
0.007774 0.314380 -0.016596 76 153 0
0.350073 -0.517107 -0.219226 0 255 0
0.130444 -0.724465 -0.214421 0 255 0
0.386584 -0.274010 -0.117807 127 0 127
0.037653 -0.335179 0.209651 0 127 127
-0.410547 0.558619 0.224067 204 51 127
-0.448312 0.759630 0.005234 153 0 76
-0.433896 0.317389 0.134593 76 153 0
0.241123 -0.088049 0.209651 0 127 127
-0.251254 0.750812 0.209651 204 51 127
0.434869 0.314380 -0.090344 76 153 0
-0.397811 -0.751249 -0.233642 204 51 127
-0.140615 0.613672 0.224067 204 51 127
-0.424132 -0.862400 -0.197748 153 0 76
0.138853 -0.293232 -0.066126 127 0 127
-0.404936 0.861924 -0.061648 153 0 76
-0.146479 0.861924 0.082891 153 0 76
0.006669 0.315025 -0.219226 76 153 0
-0.321332 0.861924 -0.087958 153 0 76
-0.375326 -0.293232 0.009477 127 0 127
-0.185127 -0.244090 -0.219226 0 255 0
-0.276860 -0.576614 -0.087923 127 127 0
-0.448312 0.385167 0.054016 153 0 76
0.468261 0.158636 -0.233642 76 0 153
-0.322488 -0.274010 0.048990 127 0 127
0.246072 -0.170939 0.224067 0 127 127
0.362776 0.569195 -0.219226 0 255 0
-0.444273 0.881145 -0.034266 153 0 76
-0.170664 -0.000767 0.224067 127 127 0
0.408805 -0.076750 -0.219226 0 255 0
0.380570 0.861924 -0.030644 153 0 76
0.270574 0.331890 -0.219226 0 255 0
0.010446 0.244416 0.224067 255 0 0
-0.448312 -0.120532 -0.091453 153 0 76
-0.212139 0.496366 0.209651 204 51 127
-0.103298 0.861924 0.107164 153 0 76
0.378129 -0.620546 0.209651 0 127 127
-0.039726 0.861924 -0.040862 153 0 76
0.375305 0.309502 0.209651 255 0 0
0.079908 0.094439 -0.214421 0 255 0
-0.253080 -0.791076 0.224067 127 127 0
-0.260362 -0.557393 -0.180275 127 127 0
0.334341 -0.249012 0.209651 0 127 127
0.331997 -0.862400 -0.076392 76 0 153
0.142828 0.017782 -0.127547 0 127 127
-0.178485 0.017782 0.023620 0 127 127
-0.448312 0.065133 0.167560 153 0 76
0.253318 0.017782 -0.046637 0 127 127
0.128152 0.861924 -0.114060 153 0 76
0.022711 0.861924 0.059245 153 0 76
-0.229500 0.295158 -0.067642 76 153 0
-0.092335 -0.360365 -0.214421 0 255 0
0.358342 0.721842 0.209651 255 0 0
-0.023721 -0.274010 -0.000794 127 0 127
-0.448312 -0.628823 -0.138019 153 0 76
-0.132260 -0.765179 0.224067 127 127 0
-0.448312 0.138458 -0.078595 153 0 76
-0.196928 0.597763 0.200535 204 51 127
0.224756 -0.303128 0.224067 0 127 127
0.170644 -0.445449 -0.214421 0 255 0
-0.231401 0.051784 -0.219226 0 255 0
0.416924 -0.843179 0.130151 76 0 153
-0.037879 -0.001439 -0.079829 0 127 127
-0.049820 -0.576614 -0.188576 127 127 0
0.399734 0.295158 -0.152214 76 153 0
-0.007783 -0.557393 0.043483 127 127 0
-0.021023 0.578541 -0.010555 153 0 76
0.017762 0.629179 0.209651 204 51 127
0.459898 0.361647 0.137854 76 0 153
0.390705 -0.647445 -0.214421 0 255 0
0.459898 -0.722219 -0.177831 76 0 153
0.041395 0.740645 0.224067 255 0 0
-0.448312 0.025902 0.170155 153 0 76
0.306506 0.196163 0.224067 255 0 0
-0.303985 0.017782 -0.027671 0 127 127
-0.100775 0.540165 -0.214421 0 255 0
0.459898 -0.447968 -0.081946 76 0 153
-0.255170 0.345584 -0.214421 0 255 0
0.012632 -0.001439 -0.101897 0 127 127
-0.092725 0.861924 0.014659 153 0 76
0.446162 -0.446654 0.209651 0 127 127
-0.332922 -0.557393 0.180279 127 127 0
0.396479 -0.557393 -0.091534 127 127 0
0.431496 0.412917 0.209651 255 0 0
-0.411347 0.489089 0.209651 204 51 127
-0.433896 -0.695184 -0.132917 153 0 76
-0.006227 -0.465594 0.209651 127 127 0
0.063917 0.314380 -0.193479 76 153 0
-0.159368 -0.293232 -0.127374 127 0 127
0.091431 -0.862400 -0.086074 76 0 153
-0.170134 -0.557393 -0.039981 127 127 0
-0.381957 0.881145 -0.005190 153 0 76
-0.206983 -0.789539 -0.214421 0 255 0
0.049839 0.681758 0.224067 255 0 0
0.181321 -0.862400 -0.145634 76 0 153
-0.433896 0.852958 0.071024 153 0 76
0.327536 0.881145 -0.002452 153 0 76
-0.083280 -0.043182 0.209651 127 127 0
0.323852 0.578541 0.039474 153 0 76
-0.071002 -0.862400 -0.089337 76 0 153
-0.425542 0.706837 0.224067 204 51 127
0.067965 -0.862400 -0.125864 76 0 153
0.367536 -0.843179 0.081361 76 0 153
-0.222712 0.881145 0.185740 153 0 76
-0.126525 0.881145 -0.227077 153 0 76
0.435388 -0.271523 0.224067 0 127 127
0.214161 -0.576614 0.075365 127 127 0
0.433239 -0.348348 0.209651 0 127 127
0.474314 -0.374409 -0.153460 76 0 153
0.080957 0.384988 -0.219226 0 255 0
-0.058952 -0.001439 -0.196729 0 127 127
-0.448312 -0.425290 -0.200023 153 0 76
0.255051 0.017782 0.196077 0 127 127
0.014203 -0.237941 0.212509 0 127 127
0.352191 0.881145 0.029063 153 0 76
0.174659 0.295158 0.005069 76 153 0
0.324211 0.295158 -0.124756 76 153 0
0.401166 0.597763 -0.165684 153 0 76
-0.209826 -0.557393 0.117195 127 127 0
-0.433896 0.361457 0.121943 153 0 76
0.459898 -0.823264 0.002270 76 0 153
0.364670 0.597763 0.074278 153 0 76
0.444435 -0.293232 -0.116678 127 0 127
-0.154260 0.246193 0.224067 204 51 127
-0.021805 0.314380 -0.038012 76 153 0
-0.448312 0.469628 -0.202457 153 0 76
-0.153467 0.314380 0.096709 76 153 0
-0.040228 0.881145 0.085130 153 0 76
0.182229 0.158473 0.224067 255 0 0
-0.096996 -0.862400 -0.171341 76 0 153
-0.390826 -0.257362 0.224067 127 127 0
-0.350185 -0.862400 -0.173390 76 0 153
-0.448312 -0.541622 -0.130610 153 0 76
0.185764 0.578541 0.162410 153 0 76
0.474314 0.029107 -0.071632 76 0 153
0.015012 0.578541 -0.072836 153 0 76
0.150175 0.314380 0.096544 76 153 0
0.021477 0.841847 0.209651 204 51 127
-0.307089 0.597763 0.090039 153 0 76
-0.034573 0.718916 -0.214421 0 255 0
0.120885 0.017782 -0.084232 0 127 127
-0.005323 -0.843179 -0.202039 76 0 153
-0.043851 0.641144 -0.219226 0 255 0
-0.433896 0.596113 -0.005794 153 0 76
0.190505 0.600101 0.209651 255 0 0
0.474314 -0.479466 -0.203547 76 0 153
0.008460 0.816319 -0.233642 255 0 0
0.388404 -0.267302 -0.219226 0 255 0
-0.364628 0.422361 0.209651 204 51 127
-0.448312 0.718953 0.091302 153 0 76
-0.193652 -0.432302 0.209651 127 127 0
-0.091112 0.295158 -0.185536 76 153 0
0.048963 0.597763 -0.096766 153 0 76
-0.424138 0.295158 0.064819 76 153 0
0.080874 -0.491672 -0.219226 0 255 0
-0.048850 0.310074 -0.219226 76 153 0
-0.127759 0.165781 -0.214421 0 255 0
-0.372134 -0.247927 -0.219226 0 255 0
0.086636 0.881145 0.149713 153 0 76
-0.145599 0.295158 -0.115327 76 153 0
0.116884 0.861924 -0.175137 153 0 76
-0.253855 -0.274010 -0.182798 127 0 127
0.043359 0.783002 -0.219226 0 255 0
0.292996 -0.274010 -0.115219 127 0 127
-0.319195 0.017782 0.032430 0 127 127
0.172981 0.794469 0.209651 255 0 0
-0.448312 0.293240 -0.164169 153 0 76
-0.341219 0.011775 0.217509 127 127 0
0.024000 0.578541 -0.177425 153 0 76
-0.253380 0.652504 0.224067 204 51 127
0.044081 0.314380 0.091848 76 153 0
0.474314 0.680723 -0.180066 76 0 153
0.258178 0.295158 -0.073106 76 153 0
0.474314 -0.558442 0.179004 76 0 153
-0.235805 0.295158 0.072412 76 153 0
-0.035628 0.525923 0.209651 204 51 127
0.067653 -0.835013 0.224067 0 127 127
0.018405 0.017782 -0.166523 0 127 127
-0.386524 -0.813769 -0.233642 204 51 127
-0.395903 -0.381652 -0.214421 0 255 0
0.459898 -0.098133 -0.005790 76 0 153
0.444365 -0.843179 -0.108476 76 0 153
-0.433896 0.408958 -0.027380 153 0 76
0.388253 -0.301020 0.224067 0 127 127
0.404227 -0.165589 0.209651 0 127 127
-0.164654 -0.578089 0.224067 127 127 0
0.177292 0.809843 -0.214421 0 255 0
-0.003017 -0.843179 -0.099824 76 0 153
-0.238114 -0.293232 0.036101 127 0 127
0.049928 -0.751232 -0.233642 204 51 127
-0.433896 0.169232 0.173149 153 0 76
0.380164 -0.211523 0.209651 0 127 127
0.260231 0.056652 -0.219226 0 255 0
-0.059443 -0.024054 -0.233642 0 0 255
0.474314 0.063178 0.076619 76 0 153
0.435092 0.575834 0.224067 255 0 0
0.373207 0.295158 -0.104724 76 153 0
-0.411168 0.123646 0.224067 204 51 127
0.055432 0.394123 0.224067 255 0 0
-0.094386 -0.576614 0.059584 127 127 0
-0.188450 -0.712810 -0.214421 0 255 0
-0.046849 0.881145 -0.133893 153 0 76
-0.076176 -0.001439 0.113602 0 127 127
-0.299532 -0.862400 0.068064 76 0 153
0.474314 0.786683 -0.191860 76 0 153
-0.388113 -0.274010 -0.029275 127 0 127
0.474314 -0.005299 0.160705 76 0 153
-0.073002 0.848028 -0.214421 0 255 0
0.346411 -0.576614 -0.096980 127 127 0
0.474314 0.470985 -0.081130 76 0 153
0.053068 0.463710 -0.219226 0 255 0
-0.412554 -0.776295 0.224067 127 127 0
0.474314 -0.552506 -0.148425 76 0 153
-0.400473 -0.601737 0.209651 127 127 0
-0.143376 0.283908 -0.214421 0 255 0
-0.243893 -0.274010 0.102238 127 0 127
-0.448312 0.719120 -0.137494 153 0 76
-0.293217 -0.466799 -0.214421 0 255 0
-0.178853 0.553170 -0.214421 0 255 0
-0.319741 0.314380 -0.082804 76 153 0
0.017374 0.549595 0.209651 255 0 0
0.054370 -0.576614 0.173355 127 127 0
0.362653 -0.557393 0.097802 127 127 0
0.174406 -0.001439 -0.028666 0 127 127
-0.078391 0.569631 0.224067 204 51 127
-0.115785 -0.190906 0.209651 127 127 0
-0.094826 0.017782 0.036147 0 127 127
-0.014843 0.101108 -0.214421 0 255 0
-0.162569 -0.843179 0.080063 76 0 153
0.239451 0.295158 -0.197730 76 153 0
0.474314 0.323000 0.043747 76 0 153
-0.126271 -0.782202 -0.233642 204 51 127
0.025210 -0.592311 -0.219226 0 255 0
0.076884 0.491303 -0.214421 0 255 0
0.236860 0.578541 0.010466 153 0 76
0.381967 0.725931 -0.214421 0 255 0
-0.433896 0.859677 0.033840 153 0 76
-0.120210 -0.576614 -0.035792 127 127 0
0.264573 -0.557393 -0.214372 0 255 0
-0.088763 0.654490 -0.214421 0 255 0
-0.448312 -0.819077 -0.232943 153 0 76
-0.116049 -0.274010 0.182718 127 0 127
0.105948 -0.642058 0.209651 0 127 127
-0.333928 -0.001439 -0.076708 0 127 127
-0.141322 0.597763 -0.185397 153 0 76
-0.448312 0.668401 -0.055682 153 0 76
-0.230655 -0.532845 0.209651 127 127 0
0.058497 -0.553161 0.224067 0 127 127
0.166316 -0.001439 0.145728 0 127 127
0.157537 0.333714 -0.214421 0 255 0
-0.404600 -0.429723 -0.214421 0 255 0
0.103397 0.290037 -0.214421 0 255 0
0.039213 -0.843179 -0.067659 76 0 153
-0.328328 -0.843179 -0.037490 76 0 153
0.396092 -0.001439 0.061144 0 127 127
-0.426956 -0.061166 0.224067 127 127 0
-0.091029 0.881145 -0.096971 153 0 76
-0.433896 -0.050495 -0.157607 153 0 76
-0.282360 -0.557393 -0.203034 127 127 0
0.037554 -0.862400 0.150592 76 0 153
-0.134544 0.314380 -0.150306 76 153 0
-0.278440 -0.420385 0.224067 127 127 0
-0.101230 -0.843179 0.087182 76 0 153
0.401846 -0.778973 0.209651 0 127 127
-0.355004 0.612458 -0.214421 0 255 0
-0.433896 0.264692 -0.105556 153 0 76
0.084218 -0.576614 0.164957 127 127 0
-0.114207 0.295158 0.161728 76 153 0
0.097162 -0.557393 -0.029528 127 127 0
0.474314 0.197773 0.017430 76 0 153
-0.433896 0.667678 0.061440 153 0 76
0.024689 -0.576614 -0.157085 127 127 0
0.405527 -0.590115 0.209651 0 127 127
0.459898 0.299206 -0.031296 76 153 0
-0.434536 -0.309491 0.224067 127 127 0
0.136646 -0.576614 -0.090340 127 127 0
-0.327200 0.477349 0.224067 204 51 127
-0.185550 -0.293232 -0.098798 127 0 127
0.267703 0.166543 0.209651 255 0 0
0.048713 0.017782 0.138681 0 127 127
0.162395 -0.843179 -0.076163 76 0 153
0.459898 0.035725 0.025571 76 0 153
0.149210 0.017782 -0.050774 0 127 127
0.474314 0.058148 0.179768 76 0 153
0.157070 -0.843179 -0.168950 76 0 153
-0.269424 -0.294325 0.224067 127 127 0
-0.107027 -0.170673 -0.219226 0 255 0
-0.347504 0.768450 0.224067 204 51 127
0.442116 0.578541 -0.092581 153 0 76
-0.243231 -0.274010 -0.093187 127 0 127
0.251569 -0.862400 0.025501 76 0 153
0.459898 0.190991 0.113512 76 0 153
0.119376 -0.843179 -0.137999 76 0 153
0.327687 0.851843 -0.233642 153 0 76
-0.223382 -0.274010 -0.010006 127 0 127
0.228838 0.295158 -0.012530 76 153 0
-0.121979 0.478044 -0.214421 0 255 0
-0.383716 -0.071714 0.224067 127 127 0
-0.063275 0.597763 -0.051226 153 0 76
0.459898 0.400398 0.089902 76 0 153
-0.074655 -0.576614 -0.136878 127 127 0
0.204085 0.314380 0.002265 76 153 0
0.169211 0.861924 -0.011856 153 0 76
-0.078269 0.295158 -0.072928 76 153 0
0.425254 -0.293232 0.102266 127 0 127
0.321109 0.881145 0.084556 153 0 76
0.194254 0.295158 -0.194738 76 153 0
0.089307 -0.634753 -0.214421 0 255 0
-0.340413 -0.843179 0.200955 76 0 153
-0.289979 -0.726593 0.224067 127 127 0
0.312848 0.424205 0.224067 255 0 0
0.201523 -0.862400 -0.205034 76 0 153
0.348204 0.881145 -0.144189 153 0 76
-0.049551 0.861924 -0.189285 153 0 76
0.459898 -0.066712 0.052479 76 0 153
-0.101242 0.314380 -0.049760 76 153 0
-0.009733 0.017782 -0.032751 0 127 127
-0.364936 -0.825968 0.209651 127 127 0
-0.448312 0.579123 -0.093279 153 0 76
0.041275 -0.283641 0.209651 0 127 127
0.444667 0.017782 -0.026144 76 0 153
0.118023 0.383952 0.224067 255 0 0
-0.184887 -0.557393 0.058188 127 127 0
0.474314 0.517065 -0.100839 76 0 153
0.182941 -0.825266 0.209651 0 127 127
-0.423277 -0.557393 -0.044066 127 127 0
-0.261356 0.017782 0.148697 0 127 127
-0.319070 -0.654575 0.224067 127 127 0
-0.433896 0.153736 0.049129 153 0 76
0.153894 0.295158 -0.186615 76 153 0
-0.001221 0.183244 0.224067 204 51 127
0.474314 -0.253151 0.140571 76 0 153
-0.135746 -0.576614 0.155213 127 127 0
0.134649 -0.862400 -0.067998 76 0 153
0.450064 -0.828002 -0.233642 76 0 153
0.232191 0.401269 -0.219226 0 255 0
-0.039465 -0.802179 0.209651 127 127 0
-0.306979 -0.293232 0.150167 127 0 127
0.272037 0.597763 0.121585 153 0 76
0.359399 0.295158 0.133323 76 153 0
-0.025656 0.578541 -0.189542 153 0 76
0.038537 -0.843179 0.083009 76 0 153
-0.140235 -0.308547 0.224067 127 127 0
-0.166460 -0.274010 0.197578 127 0 127
-0.129485 -0.497037 0.209651 127 127 0
-0.170116 0.017782 -0.184396 0 127 127
0.294178 0.295158 0.121764 76 153 0
-0.142535 -0.557393 0.061000 127 127 0
-0.065524 -0.306131 0.224067 127 127 0
-0.039975 0.578541 0.091772 153 0 76
-0.312331 0.314380 -0.128956 76 153 0
-0.111271 -0.862400 -0.130696 76 0 153
0.459898 -0.135966 -0.159208 76 0 153
-0.186321 -0.843179 0.142053 76 0 153
-0.246743 0.010294 -0.233642 0 0 255
0.416013 -0.401113 -0.219226 0 255 0
-0.399931 0.861924 -0.135143 153 0 76
-0.433896 -0.108818 0.030074 153 0 76
0.245107 0.614822 -0.214421 0 255 0
-0.223414 -0.001439 0.186089 0 127 127
0.298578 0.578541 -0.006328 153 0 76
0.156383 0.646419 -0.214421 0 255 0
0.371867 0.775078 -0.219226 0 255 0
-0.020554 -0.223901 -0.219226 0 255 0
0.111045 0.597763 -0.100515 153 0 76
-0.448312 0.198122 -0.009480 153 0 76
-0.021170 0.690619 0.209651 204 51 127
0.473113 -0.100005 0.220058 0 127 127
0.264284 -0.470803 0.209651 0 127 127
0.391599 -0.001439 -0.008486 0 127 127
0.474314 0.878542 -0.163988 76 0 153
-0.363655 -0.051337 -0.214421 0 255 0
0.288256 -0.620207 -0.214421 0 255 0
-0.182985 0.040506 -0.233642 0 0 255
0.271814 0.110333 0.209651 255 0 0
0.250764 0.881145 -0.210044 153 0 76
0.255468 0.578541 -0.084811 153 0 76
-0.379061 -0.293232 0.093171 127 0 127
0.044141 0.578541 0.121026 153 0 76
0.295257 0.017782 -0.193517 0 127 127
-0.311264 0.861924 0.062078 153 0 76
-0.180311 0.856815 0.224067 204 51 127
0.249833 0.218649 -0.219226 0 255 0
0.244695 0.679885 -0.214421 0 255 0
0.474314 -0.689857 0.103463 76 0 153
-0.064010 0.578541 0.057646 153 0 76
0.043666 0.295158 -0.137030 76 153 0
-0.353966 0.597763 -0.095690 153 0 76
0.246054 -0.843179 -0.028259 76 0 153
0.195751 0.120193 0.224067 255 0 0
-0.270339 -0.798385 -0.214421 0 255 0
-0.339320 0.245998 0.224067 204 51 127
0.435567 0.784514 0.224067 255 0 0
-0.286438 0.861924 0.110710 153 0 76
0.007821 0.861924 -0.115900 153 0 76
-0.169984 -0.564727 -0.219226 0 255 0
0.459898 0.280591 0.070271 76 0 153
-0.015937 0.478227 0.224067 204 51 127
-0.352141 -0.206091 0.224067 127 127 0
-0.413673 0.168989 0.224067 204 51 127
0.438713 0.710484 -0.219226 0 255 0
-0.294024 -0.557393 -0.008648 127 127 0
0.281965 0.861924 0.118602 153 0 76
-0.006727 0.403895 0.209651 204 51 127
-0.433896 -0.599029 0.193300 127 127 0
-0.183524 0.133731 -0.214421 0 255 0
0.289226 0.490068 -0.214421 0 255 0
0.191580 -0.557393 0.047983 127 127 0
0.331478 0.017782 -0.022189 0 127 127
0.433439 -0.274010 -0.016130 127 0 127
0.167577 -0.843179 0.161331 76 0 153
0.415067 -0.011658 0.224067 0 127 127
0.336331 0.578541 -0.114122 153 0 76
0.075567 0.017782 0.105670 0 127 127
0.474314 -0.825381 0.080059 76 0 153
0.422881 -0.576614 -0.154152 127 127 0
0.212377 -0.862400 0.063801 76 0 153
-0.448312 -0.616736 -0.029209 153 0 76
0.144956 0.861924 -0.082464 153 0 76
-0.311343 0.687675 0.209651 204 51 127
0.459898 0.734417 0.150973 76 0 153
-0.448312 -0.564637 -0.091055 127 127 0
-0.350960 -0.274010 -0.071368 127 0 127
-0.109786 0.295158 -0.101691 76 153 0
0.000068 -0.665872 -0.219226 0 255 0
-0.307825 0.115758 0.224067 204 51 127
-0.127761 -0.274010 -0.178959 127 0 127
-0.011772 -0.843179 0.062786 76 0 153
0.474314 0.440277 0.208371 255 0 0
0.298361 0.852431 0.209651 255 0 0
-0.247060 -0.557393 0.159335 127 127 0
0.181015 0.861924 -0.106095 153 0 76
0.364192 0.295158 -0.143797 76 153 0
0.238893 0.017782 -0.118877 0 127 127
0.336387 0.555143 0.209651 255 0 0
0.128726 0.597763 -0.126827 153 0 76
-0.038208 0.597763 -0.132857 153 0 76
0.047766 -0.862400 -0.195974 76 0 153
0.474314 0.662796 -0.121253 76 0 153
-0.448312 0.482475 -0.172076 153 0 76
0.195942 -0.293232 0.192286 127 0 127
0.311785 -0.843179 0.064165 76 0 153
-0.433896 -0.184824 -0.169246 153 0 76
0.279609 -0.226228 0.209651 0 127 127
