-0.442033 0.399990 -0.332510 0.300000 0.000000 0.600000
-0.157769 0.373476 0.080564 0.300000 0.000000 0.600000
-0.053445 0.114046 -0.309948 0.600000 0.300000 0.000000
0.389131 -0.294829 -0.021272 0.300000 0.000000 0.600000
0.410140 -0.326476 -0.069688 0.000000 0.000000 1.000000
0.173396 -0.247601 -0.168373 0.600000 0.000000 0.300000
0.076617 -0.211972 0.327839 0.500000 0.000000 0.500000
0.085446 0.056035 -0.065685 0.300000 0.000000 0.600000
-0.207136 0.373476 -0.341552 0.300000 0.000000 0.600000
-0.455968 -0.019181 -0.284501 0.600000 0.300000 0.000000
0.025844 -0.107060 0.141850 0.600000 0.000000 0.300000
-0.709747 0.334257 0.094091 0.800000 0.200000 0.500000
-0.162851 0.399990 0.011895 0.300000 0.000000 0.600000
0.301351 0.373476 -0.023006 0.300000 0.000000 0.600000
0.243213 0.373476 0.050700 0.300000 0.000000 0.600000
0.114773 0.081482 0.282788 0.300000 0.000000 0.600000
0.115682 -0.154871 0.167498 1.000000 0.000000 0.000000
-0.055499 0.373476 0.165990 0.300000 0.000000 0.600000
0.488268 -0.351922 -0.077673 0.000000 0.000000 1.000000
0.192987 0.399990 0.202467 0.300000 0.000000 0.600000
0.061171 -0.331616 -0.309948 0.600000 0.300000 0.000000
0.391107 -0.294829 0.095038 0.300000 0.000000 0.600000
0.496609 -0.233818 0.087979 0.800000 0.200000 0.500000
0.068183 0.081482 -0.025366 0.300000 0.000000 0.600000
0.490248 -0.154563 0.263581 0.600000 0.000000 0.300000
-0.233424 0.373476 0.099700 0.300000 0.000000 0.600000
-0.685417 -0.154780 -0.173159 0.300000 0.000000 0.600000
-0.659970 -0.012111 -0.089410 0.300000 0.000000 0.600000
0.043534 -0.326476 -0.237796 0.000000 0.000000 1.000000
0.490248 -0.116170 0.170404 0.600000 0.000000 0.300000
-0.625724 0.399990 -0.343142 0.300000 0.000000 0.600000
-0.659970 -0.244515 -0.195045 0.300000 0.000000 0.600000
0.496609 -0.211995 -0.020289 0.800000 0.200000 0.500000
0.222772 -0.326476 -0.130809 0.000000 0.000000 1.000000
0.045080 -0.264605 0.110398 0.300000 0.600000 0.000000
0.125031 0.373476 -0.047822 0.300000 0.000000 0.600000
0.453897 0.038712 0.302003 0.500000 0.500000 0.000000
0.019129 0.373476 -0.296554 0.300000 0.000000 0.600000
0.496609 0.049842 0.041103 0.800000 0.200000 0.500000
0.350605 0.351858 -0.282622 0.600000 0.000000 0.300000
0.383929 0.373476 -0.029791 0.300000 0.000000 0.600000
0.522056 0.015036 0.271000 0.800000 0.200000 0.500000
0.496609 -0.158773 -0.009138 0.800000 0.200000 0.500000
-0.685417 -0.171926 0.128615 0.300000 0.000000 0.600000
-0.141915 0.399990 -0.092470 0.300000 0.000000 0.600000
0.032206 -0.098445 -0.077423 0.800000 0.200000 0.500000
0.130276 0.373476 -0.118165 0.300000 0.000000 0.600000
0.186893 0.399990 0.033046 0.300000 0.000000 0.600000
0.025844 -0.055258 -0.093345 0.600000 0.000000 0.300000
-0.685417 -0.322771 -0.251224 0.300000 0.000000 0.600000
0.510595 0.373862 0.439221 0.300000 0.000000 0.600000
0.285244 -0.326476 0.225300 0.000000 0.000000 1.000000
-0.552405 0.373476 0.143898 0.300000 0.000000 0.600000
0.115287 -0.241100 0.302392 0.500000 0.000000 0.500000
0.075640 -0.326476 -0.125843 0.000000 0.000000 1.000000
0.000397 -0.111907 0.114516 0.600000 0.000000 0.300000
0.290550 -0.161226 0.327839 0.300000 0.000000 0.600000
-0.683593 -0.477371 0.034809 0.000000 1.000000 0.000000
-0.659970 -0.162886 -0.033878 0.300000 0.000000 0.600000
0.589836 0.373476 0.105372 0.300000 0.000000 0.600000
-0.659970 -0.334268 0.106172 0.300000 0.000000 0.600000
0.208748 0.056035 -0.131444 0.300000 0.000000 0.600000
-0.064805 -0.209819 -0.309948 0.600000 0.300000 0.000000
0.245693 -0.305432 0.327839 0.500000 0.000000 0.500000
-0.018196 0.373476 -0.358700 0.300000 0.000000 0.600000
0.435974 0.081482 0.261174 0.300000 0.000000 0.600000
0.495588 0.373476 -0.206246 0.300000 0.000000 0.600000
-0.497968 0.385624 0.440108 0.300000 0.000000 0.600000
0.160115 -0.014914 0.090114 0.600000 0.000000 0.300000
-0.029441 0.399990 -0.163755 0.300000 0.000000 0.600000
0.035868 -0.180318 0.167460 0.800000 0.200000 0.500000
-0.410727 0.373476 -0.007136 0.300000 0.000000 0.600000
0.167996 -0.277919 0.289669 0.500000 0.000000 0.500000
0.367739 0.399990 0.289957 0.300000 0.000000 0.600000
-0.659970 -0.180444 -0.177294 0.300000 0.000000 0.600000
0.122815 -0.127779 0.327839 0.300000 0.000000 0.600000
0.496609 0.048591 0.148742 0.800000 0.200000 0.500000
-0.685417 -0.278044 -0.245517 0.300000 0.000000 0.600000
0.226501 0.399990 -0.099342 0.300000 0.000000 0.600000
0.073772 -0.149611 -0.168373 0.000000 0.000000 1.000000
0.025844 -0.223760 0.240088 0.600000 0.000000 0.300000
0.235147 0.056035 0.140656 0.300000 0.000000 0.600000
-0.259904 -0.351616 0.054137 0.600000 0.300000 0.000000
0.320386 0.399990 0.206608 0.300000 0.000000 0.600000
0.522056 -0.228174 0.185107 0.800000 0.200000 0.500000
0.388090 0.399990 0.088791 0.300000 0.000000 0.600000
-0.659970 -0.150029 -0.116318 0.300000 0.000000 0.600000
-0.396518 0.399990 -0.073515 0.300000 0.000000 0.600000
0.632313 0.399990 0.247524 0.300000 0.000000 0.600000
0.325514 -0.154871 0.030178 1.000000 0.000000 0.000000
-0.331555 0.373476 0.026111 0.300000 0.000000 0.600000
0.116450 0.373476 0.348650 0.300000 0.000000 0.600000
-0.193842 0.001434 -0.284501 0.600000 0.300000 0.000000
0.532865 -0.527266 -0.302216 0.600000 0.000000 0.300000
-0.486728 0.373476 0.127536 0.300000 0.000000 0.600000
-0.496943 0.077682 -0.309948 0.600000 0.300000 0.000000
0.362241 -0.195971 -0.309948 0.600000 0.300000 0.000000
0.032206 -0.266398 0.068709 0.300000 0.600000 0.000000
0.409496 0.399990 0.150192 0.300000 0.000000 0.600000
-0.080065 0.098952 -0.284501 0.600000 0.300000 0.000000
0.375350 -0.138888 0.302392 0.300000 0.000000 0.600000
-0.401471 0.373476 0.257350 0.300000 0.000000 0.600000
-0.054485 0.399990 0.096328 0.300000 0.000000 0.600000
-0.659970 -0.007478 0.263336 0.300000 0.000000 0.600000
0.044440 -0.180318 -0.113447 0.800000 0.200000 0.500000
0.177172 0.056035 0.075334 0.300000 0.000000 0.600000
0.401851 -0.351922 0.049574 0.000000 0.000000 1.000000
0.448009 -0.154871 0.146760 1.000000 0.000000 0.000000
0.283275 0.081482 0.158792 0.300000 0.000000 0.600000
0.183452 0.056035 -0.088863 0.300000 0.000000 0.600000
0.496609 -0.106478 0.036056 0.800000 0.200000 0.500000
0.305505 0.399990 0.380954 0.300000 0.000000 0.600000
-0.039874 0.347266 0.391018 0.000000 0.000000 1.000000
0.293783 0.399990 -0.109229 0.300000 0.000000 0.600000
-0.511989 -0.029082 -0.284501 0.600000 0.300000 0.000000
0.130245 -0.154871 -0.017714 1.000000 0.000000 0.000000
-0.712732 0.367957 0.011971 0.800000 0.200000 0.500000
-0.279831 0.063009 -0.284501 0.600000 0.300000 0.000000
-0.712573 0.369175 0.242130 0.800000 0.200000 0.500000
-0.608633 -0.050057 -0.284501 0.600000 0.300000 0.000000
-0.310426 0.373476 -0.064105 0.300000 0.000000 0.600000
-0.020093 -0.001391 -0.284501 0.600000 0.300000 0.000000
0.522056 -0.178215 0.280687 0.800000 0.200000 0.500000
0.344406 0.056035 -0.046077 0.300000 0.000000 0.600000
-0.685417 0.030905 0.227950 0.300000 0.000000 0.600000
-0.643535 -0.140701 -0.284501 0.600000 0.300000 0.000000
-0.687648 0.004651 -0.309948 0.600000 0.300000 0.000000
0.267773 0.399990 0.183600 0.300000 0.000000 0.600000
0.000397 -0.231592 0.028371 0.600000 0.000000 0.300000
0.157919 -0.321813 -0.309948 0.600000 0.300000 0.000000
0.456672 -0.014914 0.147938 0.600000 0.000000 0.300000
0.046857 0.399990 0.179358 0.300000 0.000000 0.600000
0.522056 0.048469 0.204266 0.800000 0.200000 0.500000
0.224965 -0.227843 -0.284501 0.600000 0.300000 0.000000
-0.383577 -0.229190 -0.284501 0.600000 0.300000 0.000000
0.549148 0.369458 0.207354 0.300000 0.000000 0.600000
0.530657 0.373476 0.133085 0.300000 0.000000 0.600000
0.522056 0.010832 -0.026737 0.800000 0.200000 0.500000
0.353600 -0.351922 -0.268552 0.000000 0.000000 1.000000
0.025844 -0.201511 0.138347 0.600000 0.000000 0.300000
0.014434 0.399990 0.125587 0.300000 0.000000 0.600000
0.391117 -0.231212 -0.161413 0.600000 0.000000 0.300000
0.173766 -0.351922 -0.271108 0.000000 0.000000 1.000000
0.510219 -0.351922 0.289863 0.000000 0.000000 1.000000
-0.790982 0.373476 -0.254216 0.300000 0.000000 0.600000
-0.687936 0.335786 -0.246465 0.800000 0.200000 0.500000
0.322802 -0.149008 -0.309948 0.600000 0.300000 0.000000
-0.685417 -0.263383 0.226766 0.300000 0.000000 0.600000
-0.190053 0.113131 -0.309948 0.600000 0.300000 0.000000
0.469425 0.056035 -0.172644 0.300000 0.000000 0.600000
0.122368 0.373476 0.099972 0.300000 0.000000 0.600000
0.114566 -0.351922 -0.017052 0.000000 0.000000 1.000000
0.307645 0.121333 -0.309948 0.600000 0.300000 0.000000
-0.116650 -0.013639 -0.309948 0.600000 0.300000 0.000000
0.369582 -0.326476 -0.237655 0.000000 0.000000 1.000000
0.158340 -0.082792 0.302392 0.300000 0.000000 0.600000
-0.489726 0.373476 0.057686 0.300000 0.000000 0.600000
0.295844 -0.116612 -0.284501 0.600000 0.300000 0.000000
0.140586 0.056035 -0.055176 0.300000 0.000000 0.600000
-0.285606 0.399990 0.018824 0.300000 0.000000 0.600000
-0.685417 -0.039070 0.177140 0.300000 0.000000 0.600000
0.227762 -0.109606 0.289669 0.300000 0.000000 0.600000
-0.685417 0.012850 0.129774 0.300000 0.000000 0.600000
0.202363 0.081482 0.015860 0.300000 0.000000 0.600000
0.025844 -0.226453 -0.203111 0.600000 0.000000 0.300000
0.412455 -0.294829 0.197666 0.300000 0.000000 0.600000
-0.416701 -0.256900 -0.309948 0.600000 0.300000 0.000000
0.276245 -0.014914 0.046650 0.600000 0.000000 0.300000
0.025844 0.055801 0.148567 0.600000 0.000000 0.300000
-0.267856 0.399990 0.434501 0.300000 0.000000 0.600000
0.066919 0.036422 0.327450 0.500000 0.500000 0.000000
0.289528 0.399990 -0.284974 0.300000 0.000000 0.600000
0.062030 0.056035 0.140668 0.300000 0.000000 0.600000
-0.117042 0.041162 -0.284501 0.600000 0.300000 0.000000
0.317980 -0.351922 -0.063364 0.000000 0.000000 1.000000
-0.518320 0.399990 0.315172 0.300000 0.000000 0.600000
0.117977 -0.185089 0.327839 0.300000 0.000000 0.600000
0.353475 0.399990 0.332924 0.300000 0.000000 0.600000
-0.685417 -0.104404 -0.062734 0.300000 0.000000 0.600000
0.496609 -0.120170 -0.250330 0.800000 0.200000 0.500000
-0.622425 0.399990 -0.084268 0.300000 0.000000 0.600000
0.024036 -0.229336 0.327839 0.500000 0.000000 0.500000
0.081027 0.373476 -0.254466 0.300000 0.000000 0.600000
0.080579 0.399990 0.395509 0.300000 0.000000 0.600000
-0.414507 0.399990 -0.307266 0.300000 0.000000 0.600000
0.089578 0.373476 -0.000828 0.300000 0.000000 0.600000
0.069759 -0.175967 -0.284501 0.600000 0.300000 0.000000
0.549127 0.239542 0.037211 1.000000 0.000000 0.000000
0.184943 -0.294829 0.225854 0.300000 0.000000 0.600000
-0.369595 -0.010481 -0.309948 0.600000 0.300000 0.000000
0.008134 -0.231735 -0.309948 0.600000 0.300000 0.000000
0.236664 -0.005609 -0.168763 0.300000 0.600000 0.000000
0.454748 0.399990 0.183607 0.300000 0.000000 0.600000
0.217618 0.081482 -0.081074 0.300000 0.000000 0.600000
0.325113 -0.213036 -0.309948 0.600000 0.300000 0.000000
0.272934 -0.351922 -0.255476 0.000000 0.000000 1.000000
0.052903 -0.294829 0.222662 0.300000 0.000000 0.600000
0.000397 -0.103779 -0.173398 0.600000 0.000000 0.300000
-0.180180 -0.352167 0.055232 0.600000 0.300000 0.000000
-0.198661 0.093847 -0.284501 0.600000 0.300000 0.000000
-0.171791 -0.040524 -0.309948 0.600000 0.300000 0.000000
-0.554140 -0.195718 -0.284501 0.600000 0.300000 0.000000
-0.479469 -0.333607 -0.284501 0.600000 0.300000 0.000000
0.275527 -0.040361 -0.167329 0.300000 0.600000 0.000000
0.257748 -0.166290 0.302392 0.300000 0.000000 0.600000
0.288301 0.399990 0.295006 0.300000 0.000000 0.600000
0.393367 -0.014269 0.327450 0.500000 0.500000 0.000000
-0.058913 -0.035610 -0.309948 0.600000 0.300000 0.000000
0.103649 0.399990 0.157863 0.300000 0.000000 0.600000
0.324620 -0.177909 0.289669 0.300000 0.000000 0.600000
0.262669 -0.014914 0.118757 0.600000 0.000000 0.300000
0.179123 0.081482 -0.015166 0.300000 0.000000 0.600000
-0.699068 0.333714 -0.023947 0.800000 0.200000 0.500000
0.166179 0.081482 0.273325 0.300000 0.000000 0.600000
-0.187875 0.373476 0.217288 0.300000 0.000000 0.600000
0.450768 -0.199488 -0.284501 0.600000 0.300000 0.000000
0.001053 0.081482 -0.155240 0.300000 0.000000 0.600000
0.269222 -0.326476 -0.061148 0.000000 0.000000 1.000000
-0.330442 0.125390 -0.284501 0.600000 0.300000 0.000000
-0.713314 0.226302 0.049896 0.000000 1.000000 0.000000
0.255836 0.056035 -0.262538 0.300000 0.000000 0.600000
-0.509561 -0.375028 0.058456 0.600000 0.300000 0.000000
0.100628 -0.180318 0.290760 0.300000 0.000000 0.600000
0.523932 0.399990 0.085742 0.300000 0.000000 0.600000
0.380472 -0.326476 0.196567 0.000000 0.000000 1.000000
0.207319 -0.014914 -0.037867 0.600000 0.000000 0.300000
0.343530 0.003993 0.302003 0.500000 0.500000 0.000000
0.496609 -0.218298 0.155142 0.800000 0.200000 0.500000
0.351617 -0.236170 0.289669 0.500000 0.000000 0.500000
0.307959 0.399990 -0.141188 0.300000 0.000000 0.600000
0.068343 -0.154871 0.054518 1.000000 0.000000 0.000000
0.424343 0.056035 -0.127144 0.300000 0.000000 0.600000
0.426724 -0.351922 0.177467 0.000000 0.000000 1.000000
0.633833 0.373476 -0.211460 0.300000 0.000000 0.600000
-0.582061 0.373476 -0.328974 0.300000 0.000000 0.600000
0.087645 -0.143487 -0.284501 0.600000 0.300000 0.000000
-0.235187 0.373476 -0.000316 0.300000 0.000000 0.600000
0.061750 0.121849 -0.284501 0.600000 0.300000 0.000000
0.212591 -0.231790 0.289669 0.500000 0.000000 0.500000
-0.155965 0.399990 0.330317 0.300000 0.000000 0.600000
0.180675 -0.154871 0.212307 1.000000 0.000000 0.000000
0.069919 0.056035 0.021394 0.300000 0.000000 0.600000
-0.586126 0.373476 0.010802 0.300000 0.000000 0.600000
0.199846 -0.154871 -0.139037 1.000000 0.000000 0.000000
-0.214020 0.399990 -0.083786 0.300000 0.000000 0.600000
0.325439 -0.042964 -0.309948 0.600000 0.300000 0.000000
0.344712 0.373476 0.163132 0.300000 0.000000 0.600000
0.116227 -0.330636 0.327839 0.500000 0.000000 0.500000
-0.685417 -0.181693 0.270682 0.300000 0.000000 0.600000
-0.556423 -0.363130 0.060129 0.600000 0.300000 0.000000
0.198370 -0.154871 0.034032 1.000000 0.000000 0.000000
0.339023 0.056035 -0.226665 0.300000 0.000000 0.600000
0.510778 0.081482 -0.070012 0.300000 0.000000 0.600000
0.496609 -0.049380 0.104113 0.800000 0.200000 0.500000
0.343188 0.393536 0.440108 0.300000 0.000000 0.600000
0.180380 0.399990 -0.353012 0.300000 0.000000 0.600000
0.051368 0.056035 -0.172948 0.300000 0.000000 0.600000
0.461185 0.056035 -0.047466 0.300000 0.000000 0.600000
0.128127 -0.294829 0.078654 0.300000 0.000000 0.600000
-0.664830 0.373476 0.310203 0.300000 0.000000 0.600000
0.522827 0.371980 0.360532 0.300000 0.000000 0.600000
0.522056 -0.272536 -0.209037 0.800000 0.200000 0.500000
0.220290 -0.326476 0.051992 0.000000 0.000000 1.000000
-0.685417 0.013772 -0.196048 0.300000 0.000000 0.600000
-0.407140 0.016067 -0.309948 0.600000 0.300000 0.000000
-0.684968 0.081482 0.085354 0.300000 0.000000 0.600000
-0.191272 -0.117424 -0.309948 0.600000 0.300000 0.000000
0.510815 0.373476 0.016779 0.300000 0.000000 0.600000
0.549646 -0.545221 0.180052 0.600000 0.000000 0.300000
0.017601 0.009803 -0.309948 0.600000 0.300000 0.000000
-0.319685 0.373476 0.086060 0.300000 0.000000 0.600000
-0.685417 -0.324920 -0.027470 0.300000 0.000000 0.600000
0.424259 0.373476 0.290320 0.300000 0.000000 0.600000
0.463599 -0.294829 0.111426 0.300000 0.000000 0.600000
-0.635763 -0.003124 -0.284501 0.600000 0.300000 0.000000
0.171667 0.399990 0.060937 0.300000 0.000000 0.600000
-0.035737 0.373476 -0.147415 0.300000 0.000000 0.600000
-0.659970 -0.099557 -0.273491 0.300000 0.000000 0.600000
-0.136271 0.373476 0.254318 0.300000 0.000000 0.600000
0.349185 0.056035 0.096674 0.300000 0.000000 0.600000
0.123041 0.373476 0.300122 0.300000 0.000000 0.600000
0.549646 -0.546197 0.144857 0.600000 0.000000 0.300000
0.145552 0.399990 -0.339976 0.300000 0.000000 0.600000
0.502001 0.399990 -0.053324 0.300000 0.000000 0.600000
0.130538 -0.294829 0.231024 0.300000 0.000000 0.600000
0.036427 0.056035 0.036570 0.300000 0.000000 0.600000
0.490248 -0.178745 -0.056812 0.600000 0.000000 0.300000
0.522056 -0.343896 0.129262 0.000000 0.000000 1.000000
0.247393 0.399990 0.414151 0.300000 0.000000 0.600000
-0.227406 0.373476 0.135097 0.300000 0.000000 0.600000
-0.592700 0.399990 0.049867 0.300000 0.000000 0.600000
0.063432 0.399990 -0.300660 0.300000 0.000000 0.600000
0.522056 -0.313403 -0.001212 0.800000 0.200000 0.500000
0.601753 0.388953 -0.361466 0.300000 0.000000 0.600000
0.395994 0.373476 0.058824 0.300000 0.000000 0.600000
0.356907 -0.014914 0.243644 0.600000 0.000000 0.300000
0.477374 -0.014486 0.087151 0.500000 0.000000 0.500000
0.520390 -0.351922 -0.048996 0.000000 0.000000 1.000000
0.435772 0.056035 0.232156 0.300000 0.000000 0.600000
0.000397 -0.333335 0.066252 0.000000 0.000000 1.000000
0.520400 0.354195 -0.135684 0.300000 0.000000 0.600000
0.546658 -0.112348 -0.284501 0.600000 0.300000 0.000000
-0.205275 -0.292112 -0.284501 0.600000 0.300000 0.000000
-0.788334 0.373476 -0.193739 0.300000 0.000000 0.600000
-0.381779 0.079153 -0.309948 0.600000 0.300000 0.000000
0.081071 0.399990 0.062183 0.300000 0.000000 0.600000
0.252929 0.081482 0.057913 0.300000 0.000000 0.600000
0.186524 0.081482 -0.159092 0.300000 0.000000 0.600000
0.395247 -0.014914 0.271936 0.600000 0.000000 0.300000
0.322818 -0.294829 0.002271 0.300000 0.000000 0.600000
0.000397 -0.231978 0.091495 0.600000 0.000000 0.300000
0.281213 -0.310617 -0.309948 0.600000 0.300000 0.000000
-0.029655 -0.079321 -0.284501 0.600000 0.300000 0.000000
-0.609687 -0.232627 -0.309948 0.600000 0.300000 0.000000
-0.263037 0.399990 -0.270008 0.300000 0.000000 0.600000
0.407669 -0.014914 0.104038 0.600000 0.000000 0.300000
0.025844 -0.233673 -0.234913 0.600000 0.000000 0.300000
0.145115 -0.154871 0.048528 1.000000 0.000000 0.000000
-0.287727 -0.037340 -0.309948 0.600000 0.300000 0.000000
-0.685188 -0.538874 -0.053215 0.300000 0.000000 0.600000
0.438961 -0.095973 0.327839 0.300000 0.000000 0.600000
-0.786026 0.399990 0.364804 0.300000 0.000000 0.600000
-0.386106 -0.379239 0.039683 0.600000 0.300000 0.000000
0.000397 -0.160950 0.001522 0.600000 0.000000 0.300000
0.572327 0.399990 0.210988 0.300000 0.000000 0.600000
0.514043 0.373476 -0.015057 0.300000 0.000000 0.600000
0.309214 -0.327330 -0.309948 0.600000 0.300000 0.000000
0.222574 0.081482 0.283546 0.300000 0.000000 0.600000
0.343274 0.047642 -0.309948 0.600000 0.300000 0.000000
0.522056 -0.108756 -0.015884 0.800000 0.200000 0.500000
0.201899 -0.127793 0.289669 0.300000 0.000000 0.600000
0.387683 0.056035 -0.204700 0.300000 0.000000 0.600000
0.191415 0.399990 0.326706 0.300000 0.000000 0.600000
-0.016701 -0.368030 0.018908 0.600000 0.300000 0.000000
0.179134 0.081482 0.158924 0.300000 0.000000 0.600000
-0.096948 0.399990 0.273707 0.300000 0.000000 0.600000
-0.683595 -0.035611 0.034639 0.000000 1.000000 0.000000
-0.384461 0.373476 0.284864 0.300000 0.000000 0.600000
0.297550 -0.294829 0.150247 0.300000 0.000000 0.600000
0.045082 0.034908 -0.018513 0.000000 0.500000 0.500000
0.065471 -0.106175 0.302392 0.300000 0.000000 0.600000
0.292009 0.399990 0.028019 0.300000 0.000000 0.600000
0.025844 -0.052675 0.182058 0.600000 0.000000 0.300000
0.463515 -0.240471 0.289669 0.500000 0.000000 0.500000
0.456691 0.056035 0.259941 0.300000 0.000000 0.600000
-0.255381 0.399990 -0.342787 0.300000 0.000000 0.600000
0.279669 -0.351922 -0.013685 0.000000 0.000000 1.000000
-0.137105 0.373476 -0.206578 0.300000 0.000000 0.600000
0.358025 -0.299641 -0.309948 0.600000 0.300000 0.000000
-0.659970 -0.059182 -0.251175 0.300000 0.000000 0.600000
-0.685417 0.014615 0.009048 0.300000 0.000000 0.600000
0.288059 0.056035 0.207238 0.300000 0.000000 0.600000
-0.378301 0.373476 -0.219998 0.300000 0.000000 0.600000
0.285294 -0.289914 -0.168373 0.600000 0.000000 0.300000
0.526813 -0.214219 -0.309948 0.600000 0.300000 0.000000
-0.666111 0.373476 0.248735 0.300000 0.000000 0.600000
-0.717850 0.033219 -0.285009 0.600000 0.300000 0.000000
-0.683848 0.344697 0.276664 0.800000 0.200000 0.500000
-0.271736 0.399990 0.266036 0.300000 0.000000 0.600000
-0.625663 0.141772 -0.309948 0.600000 0.300000 0.000000
0.036875 -0.180318 0.106616 0.800000 0.200000 0.500000
-0.207238 0.399990 0.408969 0.300000 0.000000 0.600000
0.189881 -0.326476 0.158705 0.000000 0.000000 1.000000
0.411086 -0.294829 0.160154 0.300000 0.000000 0.600000
-0.625058 0.373476 0.250205 0.300000 0.000000 0.600000
0.107751 -0.294829 0.050951 0.300000 0.000000 0.600000
-0.659970 -0.198430 0.133038 0.300000 0.000000 0.600000
0.071297 0.081482 -0.188030 0.300000 0.000000 0.600000
0.520165 0.353049 -0.047241 0.300000 0.000000 0.600000
0.555220 0.373476 -0.246488 0.300000 0.000000 0.600000
0.035704 0.010533 0.298543 0.000000 0.500000 0.500000
0.005449 0.399990 0.168590 0.300000 0.000000 0.600000
-0.676130 0.373476 -0.246555 0.300000 0.000000 0.600000
0.237943 -0.154871 -0.007607 1.000000 0.000000 0.000000
-0.685417 -0.140296 0.209202 0.300000 0.000000 0.600000
0.256492 0.373476 -0.289298 0.300000 0.000000 0.600000
-0.494532 0.373476 0.157940 0.300000 0.000000 0.600000
0.000397 -0.321067 0.163390 0.600000 0.000000 0.300000
0.413889 0.373476 0.241251 0.300000 0.000000 0.600000
0.000397 -0.244823 0.236491 0.600000 0.000000 0.300000
0.521295 0.081482 0.129628 0.300000 0.000000 0.600000
0.113120 0.081482 0.100133 0.300000 0.000000 0.600000
-0.709091 0.334602 -0.155314 0.800000 0.200000 0.500000
-0.325798 0.399990 -0.322393 0.300000 0.000000 0.600000
-0.610036 -0.352688 0.056271 0.600000 0.300000 0.000000
-0.455235 -0.350570 0.032554 0.600000 0.300000 0.000000
0.489830 0.048703 0.091708 0.500000 0.000000 0.500000
0.355240 0.056035 0.206767 0.300000 0.000000 0.600000
-0.685417 -0.075070 -0.281312 0.300000 0.000000 0.600000
-0.242990 0.373476 -0.319538 0.300000 0.000000 0.600000
-0.712770 0.193567 0.054918 0.000000 1.000000 0.000000
0.025844 -0.291677 -0.007436 0.600000 0.000000 0.300000
0.159181 -0.203569 0.327839 0.300000 0.000000 0.600000
-0.691578 -0.169872 0.058842 0.000000 1.000000 0.000000
-0.039445 -0.141245 -0.309948 0.600000 0.300000 0.000000
0.032747 -0.327735 -0.284501 0.600000 0.300000 0.000000
-0.314888 0.399990 -0.018217 0.300000 0.000000 0.600000
-0.685417 -0.336949 -0.179994 0.300000 0.000000 0.600000
-0.537941 0.399990 0.062673 0.300000 0.000000 0.600000
-0.130263 0.399990 -0.353906 0.300000 0.000000 0.600000
-0.218105 0.373476 -0.169038 0.300000 0.000000 0.600000
0.378826 0.081482 0.002950 0.300000 0.000000 0.600000
0.234860 -0.351922 -0.255886 0.000000 0.000000 1.000000
0.457371 -0.351922 -0.017060 0.000000 0.000000 1.000000
0.549068 0.180664 0.031700 1.000000 0.000000 0.000000
-0.659970 -0.277338 0.246992 0.300000 0.000000 0.600000
0.317396 -0.002744 -0.309948 0.600000 0.300000 0.000000
0.119998 0.399990 0.041313 0.300000 0.000000 0.600000
0.300769 -0.266268 -0.284501 0.600000 0.300000 0.000000
-0.603567 0.373476 -0.026755 0.300000 0.000000 0.600000
0.269258 -0.326476 -0.228717 0.000000 0.000000 1.000000
0.151099 -0.042048 0.327450 0.500000 0.500000 0.000000
0.055733 -0.014914 0.028243 0.600000 0.000000 0.300000
-0.700505 0.012629 0.059978 0.000000 1.000000 0.000000
-0.685417 0.078418 -0.220145 0.300000 0.000000 0.600000
0.192908 -0.326476 -0.022534 0.000000 0.000000 1.000000
-0.670121 -0.351922 -0.052813 0.300000 0.000000 0.600000
-0.692398 0.399990 0.219243 0.300000 0.000000 0.600000
0.438051 -0.312709 0.302392 0.500000 0.000000 0.500000
0.488360 -0.044427 -0.284501 0.600000 0.300000 0.000000
0.142765 -0.281912 -0.284501 0.600000 0.300000 0.000000
0.545117 -0.268449 0.020806 1.000000 0.000000 0.000000
-0.222973 -0.098529 -0.309948 0.600000 0.300000 0.000000
0.332670 0.373476 0.057226 0.300000 0.000000 0.600000
-0.342382 -0.183273 -0.309948 0.600000 0.300000 0.000000
-0.723890 0.399990 0.142676 0.300000 0.000000 0.600000
0.533276 -0.591291 -0.308884 0.000000 0.500000 0.500000
0.355921 0.350616 0.391072 0.000000 0.000000 1.000000
-0.058985 0.399990 0.059178 0.300000 0.000000 0.600000
-0.783735 0.373476 -0.295510 0.300000 0.000000 0.600000
0.166178 -0.118545 -0.284501 0.600000 0.300000 0.000000
-0.509839 -0.293412 -0.309948 0.600000 0.300000 0.000000
-0.706888 -0.613661 -0.309887 0.500000 0.500000 0.000000
-0.163507 -0.258195 -0.309948 0.600000 0.300000 0.000000
0.477374 -0.035508 0.272288 0.500000 0.000000 0.500000
0.296909 0.358034 -0.312441 0.600000 0.000000 0.300000
0.096325 0.081482 -0.115993 0.300000 0.000000 0.600000
-0.685417 0.055776 -0.111781 0.300000 0.000000 0.600000
0.122521 -0.351757 -0.309930 0.600000 0.300000 0.000000
0.190664 0.373476 -0.067980 0.300000 0.000000 0.600000
-0.680336 0.373476 0.064354 0.300000 0.000000 0.600000
0.328027 0.373476 -0.256565 0.300000 0.000000 0.600000
-0.812823 0.399170 0.004226 0.300000 0.000000 0.600000
-0.646115 0.343547 -0.312386 0.600000 0.000000 0.300000
-0.366228 0.373476 -0.081235 0.300000 0.000000 0.600000
-0.685417 -0.261013 0.011054 0.300000 0.000000 0.600000
0.415775 -0.351922 0.019899 0.000000 0.000000 1.000000
0.064563 0.081482 -0.242906 0.300000 0.000000 0.600000
-0.712451 0.336636 0.326791 0.800000 0.200000 0.500000
-0.659970 0.016835 -0.248690 0.300000 0.000000 0.600000
-0.033876 -0.281393 -0.309948 0.600000 0.300000 0.000000
-0.685417 -0.219356 -0.027340 0.300000 0.000000 0.600000
-0.711259 -0.565829 0.073712 0.300000 0.000000 0.600000
0.007898 0.081482 -0.102728 0.300000 0.000000 0.600000
0.226441 0.399990 0.343244 0.300000 0.000000 0.600000
0.496609 -0.084878 0.097838 0.800000 0.200000 0.500000
-0.279908 0.399990 -0.135658 0.300000 0.000000 0.600000
0.390369 0.373476 0.141491 0.300000 0.000000 0.600000
-0.685417 -0.021498 -0.060924 0.300000 0.000000 0.600000
0.025844 -0.128547 0.012345 0.600000 0.000000 0.300000
0.191660 0.373476 0.241151 0.300000 0.000000 0.600000
0.496609 -0.304474 -0.081424 0.800000 0.200000 0.500000
0.035751 0.033181 -0.284501 0.600000 0.300000 0.000000
0.257667 0.373476 0.209884 0.300000 0.000000 0.600000
0.522056 -0.020945 0.093134 0.800000 0.200000 0.500000
0.430689 -0.091708 -0.284501 0.600000 0.300000 0.000000
0.465676 -0.153389 0.302392 0.300000 0.000000 0.600000
0.000397 0.049766 0.171701 0.600000 0.000000 0.300000
0.025844 0.044982 -0.189104 0.600000 0.000000 0.300000
0.396170 -0.212860 -0.309948 0.600000 0.300000 0.000000
0.203996 -0.154871 0.159852 1.000000 0.000000 0.000000
0.539268 0.002123 0.059568 1.000000 0.000000 0.000000
0.489148 0.335531 0.385829 0.000000 0.000000 1.000000
-0.497237 0.115553 -0.309948 0.600000 0.300000 0.000000
-0.096829 0.399990 0.023691 0.300000 0.000000 0.600000
0.025844 -0.060095 -0.131621 0.600000 0.000000 0.300000
0.452257 -0.326476 0.217343 0.000000 0.000000 1.000000
0.000397 0.021491 0.002945 0.600000 0.000000 0.300000
0.157803 0.373476 -0.184192 0.300000 0.000000 0.600000
0.037645 0.350640 -0.312445 0.600000 0.000000 0.300000
0.188562 0.373476 0.380139 0.300000 0.000000 0.600000
0.080581 0.348298 0.391034 0.000000 0.000000 1.000000
-0.660730 0.373476 -0.301034 0.300000 0.000000 0.600000
-0.715055 0.373476 -0.059516 0.300000 0.000000 0.600000
0.093650 0.069368 0.327450 0.500000 0.500000 0.000000
0.025844 -0.180050 -0.005132 0.600000 0.000000 0.300000
0.498720 0.373476 -0.339440 0.300000 0.000000 0.600000
0.087759 0.399990 0.092963 0.300000 0.000000 0.600000
-0.268646 0.399990 0.343452 0.300000 0.000000 0.600000
-0.521633 0.399990 -0.098089 0.300000 0.000000 0.600000
0.000397 -0.007606 0.190974 0.600000 0.000000 0.300000
0.309670 -0.294829 0.120282 0.300000 0.000000 0.600000
-0.006062 0.086470 -0.284501 0.600000 0.300000 0.000000
-0.019525 0.023152 -0.309948 0.600000 0.300000 0.000000
-0.679271 0.080085 0.300775 0.300000 0.000000 0.600000
-0.106081 0.093942 -0.309948 0.600000 0.300000 0.000000
0.007388 -0.083562 0.327196 0.300000 0.000000 0.600000
0.522056 -0.164072 -0.199798 0.800000 0.200000 0.500000
0.112646 0.373476 -0.177208 0.300000 0.000000 0.600000
0.145252 -0.146487 0.289669 0.300000 0.000000 0.600000
0.056447 -0.326476 0.066945 0.000000 0.000000 1.000000
-0.659970 -0.295104 -0.204740 0.300000 0.000000 0.600000
0.261660 0.081482 -0.031192 0.300000 0.000000 0.600000
-0.648736 -0.076829 -0.309948 0.600000 0.300000 0.000000
0.003428 -0.326476 -0.096698 0.000000 0.000000 1.000000
0.066584 0.013333 -0.284501 0.600000 0.300000 0.000000
0.312207 0.081482 -0.017486 0.300000 0.000000 0.600000
0.121427 -0.326476 -0.135658 0.000000 0.000000 1.000000
0.496609 0.016577 -0.108736 0.800000 0.200000 0.500000
0.402534 -0.326476 0.127475 0.000000 0.000000 1.000000
0.137721 -0.243774 -0.284501 0.600000 0.300000 0.000000
-0.559691 0.373476 0.176317 0.300000 0.000000 0.600000
0.345966 -0.112977 0.289669 0.300000 0.000000 0.600000
0.208423 -0.014914 0.023842 0.600000 0.000000 0.300000
-0.132530 0.373476 0.114175 0.300000 0.000000 0.600000
0.072968 0.056035 0.090267 0.300000 0.000000 0.600000
0.496609 -0.325030 0.282743 0.800000 0.200000 0.500000
-0.604380 -0.288290 -0.309948 0.600000 0.300000 0.000000
-0.254919 0.399990 -0.199411 0.300000 0.000000 0.600000
-0.785929 0.373476 0.416352 0.300000 0.000000 0.600000
-0.685417 -0.339565 0.202308 0.300000 0.000000 0.600000
-0.791903 0.373476 -0.117424 0.300000 0.000000 0.600000
-0.508087 0.373476 0.204308 0.300000 0.000000 0.600000
0.328117 -0.351922 -0.210400 0.000000 0.000000 1.000000
-0.655724 0.373476 -0.203379 0.300000 0.000000 0.600000
0.517629 0.340665 -0.274545 0.300000 0.000000 0.600000
-0.648033 0.068066 -0.284501 0.600000 0.300000 0.000000
-0.589768 -0.137565 -0.309948 0.600000 0.300000 0.000000
-0.659970 -0.153762 -0.084909 0.300000 0.000000 0.600000
0.254245 -0.358110 0.021388 0.600000 0.300000 0.000000
0.174698 -0.014914 0.254869 0.600000 0.000000 0.300000
-0.713117 -0.533861 -0.319722 0.500000 0.500000 0.000000
0.352164 -0.326476 0.003692 0.000000 0.000000 1.000000
0.082780 -0.118311 -0.168373 0.000000 0.000000 1.000000
-0.452962 0.399990 0.128158 0.300000 0.000000 0.600000
-0.534089 0.373476 -0.292997 0.300000 0.000000 0.600000
0.520075 -0.326476 0.054066 0.800000 0.200000 0.500000
0.143364 -0.005260 -0.168763 0.300000 0.600000 0.000000
0.381892 0.056035 0.023142 0.300000 0.000000 0.600000
0.000397 -0.188503 -0.217869 0.600000 0.000000 0.300000
-0.528755 0.335010 0.369614 0.000000 0.000000 1.000000
0.023360 0.056035 -0.150749 0.600000 0.000000 0.300000
-0.392549 0.399990 -0.334254 0.300000 0.000000 0.600000
-0.486405 0.399990 0.307790 0.300000 0.000000 0.600000
-0.712718 0.063237 0.055266 0.000000 1.000000 0.000000
0.185156 -0.367838 0.018938 0.600000 0.300000 0.000000
-0.158892 0.373476 -0.055723 0.300000 0.000000 0.600000
-0.684445 -0.586258 -0.324604 0.500000 0.500000 0.000000
0.118661 -0.326476 -0.207696 0.000000 0.000000 1.000000
0.322302 -0.040233 0.289279 0.500000 0.500000 0.000000
-0.407768 0.399990 0.332234 0.300000 0.000000 0.600000
0.316064 -0.294829 0.051562 0.300000 0.000000 0.600000
-0.630481 0.399990 0.152081 0.300000 0.000000 0.600000
0.499437 0.399990 -0.134175 0.300000 0.000000 0.600000
-0.449336 -0.046441 -0.309948 0.600000 0.300000 0.000000
0.454142 -0.326476 0.253054 0.000000 0.000000 1.000000
0.067379 -0.014914 -0.136863 0.600000 0.000000 0.300000
0.396998 0.056035 0.095027 0.300000 0.000000 0.600000
0.000397 0.026331 -0.227971 0.600000 0.000000 0.300000
0.491852 0.081482 0.205157 0.300000 0.000000 0.600000
-0.659970 -0.022655 -0.027375 0.300000 0.000000 0.600000
0.549658 -0.552987 0.282702 0.600000 0.000000 0.300000
-0.563355 -0.097092 -0.284501 0.600000 0.300000 0.000000
0.052430 -0.154871 0.114507 1.000000 0.000000 0.000000
0.187203 0.399990 -0.143289 0.300000 0.000000 0.600000
0.041612 -0.351922 0.264013 0.000000 0.000000 1.000000
-0.271666 0.399990 0.312746 0.300000 0.000000 0.600000
0.501359 -0.326476 -0.213636 0.000000 0.000000 1.000000
-0.639278 0.373476 -0.144764 0.300000 0.000000 0.600000
0.633955 0.373476 0.059318 0.300000 0.000000 0.600000
0.438252 -0.192535 0.327839 0.300000 0.000000 0.600000
-0.405875 -0.325755 -0.309948 0.600000 0.300000 0.000000
-0.763432 0.373476 0.025059 0.300000 0.000000 0.600000
-0.713336 0.278383 0.046602 0.000000 1.000000 0.000000
0.381980 -0.351922 -0.256577 0.000000 0.000000 1.000000
-0.630551 -0.310941 -0.309948 0.600000 0.300000 0.000000
-0.336349 -0.074310 -0.284501 0.600000 0.300000 0.000000
-0.594996 -0.004579 -0.309948 0.600000 0.300000 0.000000
0.226553 -0.154871 0.112386 1.000000 0.000000 0.000000
0.543677 0.399990 0.352102 0.300000 0.000000 0.600000
0.388079 -0.090865 -0.284501 0.600000 0.300000 0.000000
-0.140556 0.373476 -0.139924 0.300000 0.000000 0.600000
-0.741378 0.379412 0.440108 0.300000 0.000000 0.600000
0.025844 -0.122678 0.078094 0.600000 0.000000 0.300000
0.019672 0.056035 0.099562 0.600000 0.000000 0.300000
0.522056 -0.130819 -0.196785 0.800000 0.200000 0.500000
0.022307 0.373476 -0.067869 0.300000 0.000000 0.600000
0.089333 -0.133698 0.327839 0.300000 0.000000 0.600000
0.311512 -0.326476 0.031737 0.000000 0.000000 1.000000
0.006360 -0.121586 -0.309948 0.600000 0.300000 0.000000
-0.545197 0.373476 0.076434 0.300000 0.000000 0.600000
-0.659970 0.057531 -0.167672 0.300000 0.000000 0.600000
0.406429 -0.119897 -0.155650 0.000000 0.000000 1.000000
0.463229 -0.006988 -0.168763 0.300000 0.600000 0.000000
-0.232313 -0.052139 -0.284501 0.600000 0.300000 0.000000
0.147546 -0.143890 -0.309948 0.600000 0.300000 0.000000
0.082608 0.399990 -0.120148 0.300000 0.000000 0.600000
0.123769 0.399990 0.240996 0.300000 0.000000 0.600000
0.407432 0.399990 0.301844 0.300000 0.000000 0.600000
-0.541884 0.399990 0.289565 0.300000 0.000000 0.600000
0.314619 -0.176512 -0.284501 0.600000 0.300000 0.000000
0.498959 0.373476 0.131864 0.300000 0.000000 0.600000
0.522056 -0.222909 0.113406 0.800000 0.200000 0.500000
-0.435908 -0.185502 -0.309948 0.600000 0.300000 0.000000
0.399815 0.018193 -0.156039 0.300000 0.600000 0.000000
-0.477759 -0.095088 -0.284501 0.600000 0.300000 0.000000
-0.707035 -0.528982 -0.003342 0.300000 0.000000 0.600000
0.352268 -0.039137 0.327450 0.500000 0.500000 0.000000
0.122866 -0.320276 0.290868 0.500000 0.000000 0.500000
-0.477870 0.399990 0.375376 0.300000 0.000000 0.600000
-0.211319 -0.178738 -0.309948 0.600000 0.300000 0.000000
0.068408 -0.014914 -0.063881 0.600000 0.000000 0.300000
-0.022022 0.373476 0.064002 0.300000 0.000000 0.600000
-0.093030 0.354532 -0.282634 0.600000 0.000000 0.300000
0.494220 -0.041047 0.327450 0.500000 0.500000 0.000000
-0.082351 0.373476 -0.096438 0.300000 0.000000 0.600000
0.157955 -0.075112 -0.309948 0.600000 0.300000 0.000000
0.051188 -0.294829 0.162801 0.300000 0.000000 0.600000
0.211998 0.373476 -0.313639 0.300000 0.000000 0.600000
0.325936 -0.089711 0.327839 0.300000 0.000000 0.600000
0.496609 -0.196645 0.184473 0.800000 0.200000 0.500000
-0.659970 -0.234927 0.053125 0.300000 0.000000 0.600000
0.450034 -0.323871 -0.284501 0.600000 0.300000 0.000000
0.276664 -0.351922 0.210646 0.000000 0.000000 1.000000
0.530228 -0.530095 -0.185087 0.600000 0.000000 0.300000
0.593787 0.399990 -0.027596 0.300000 0.000000 0.600000
0.325776 0.399990 -0.030843 0.300000 0.000000 0.600000
-0.117701 0.373476 0.012857 0.300000 0.000000 0.600000
-0.394014 -0.014107 -0.284501 0.600000 0.300000 0.000000
-0.291835 -0.103823 -0.284501 0.600000 0.300000 0.000000
0.032206 -0.237487 -0.098760 0.300000 0.600000 0.000000
0.496609 -0.085515 0.240614 0.800000 0.200000 0.500000
0.288720 -0.346757 0.300775 0.000000 0.000000 1.000000
0.181486 0.081482 -0.214746 0.300000 0.000000 0.600000
0.141813 0.105886 -0.284501 0.600000 0.300000 0.000000
-0.475630 0.399990 -0.285767 0.300000 0.000000 0.600000
-0.265627 0.373476 0.059395 0.300000 0.000000 0.600000
0.465948 -0.326476 -0.125257 0.000000 0.000000 1.000000
0.319108 -0.014914 -0.059135 0.600000 0.000000 0.300000
0.354007 0.056035 -0.100287 0.300000 0.000000 0.600000
0.554699 0.373476 -0.340690 0.300000 0.000000 0.600000
-0.754832 0.399990 0.138590 0.300000 0.000000 0.600000
0.100431 -0.295499 -0.168373 0.600000 0.000000 0.300000
0.490248 -0.282130 0.222111 0.000000 0.500000 0.500000
0.343927 0.081482 0.131411 0.300000 0.000000 0.600000
0.277518 -0.294829 -0.139257 0.300000 0.000000 0.600000
0.025844 0.050145 -0.101308 0.600000 0.000000 0.300000
0.320497 0.056035 0.220823 0.300000 0.000000 0.600000
-0.057458 0.399990 0.003387 0.300000 0.000000 0.600000
-0.101285 0.366361 0.389842 0.000000 0.000000 1.000000
-0.426512 0.373476 0.092455 0.300000 0.000000 0.600000
0.435603 -0.154871 0.237290 1.000000 0.000000 0.000000
-0.737211 0.373476 0.349883 0.300000 0.000000 0.600000
0.308506 0.081482 0.277822 0.300000 0.000000 0.600000
0.129909 0.056035 0.273306 0.300000 0.000000 0.600000
-0.664054 -0.181684 -0.309948 0.600000 0.300000 0.000000
-0.096886 -0.121796 -0.284501 0.600000 0.300000 0.000000
0.288153 0.399990 0.095516 0.300000 0.000000 0.600000
0.161391 0.399990 0.377463 0.300000 0.000000 0.600000
0.025844 -0.001966 0.238749 0.600000 0.000000 0.300000
0.490248 -0.317300 0.028968 0.000000 0.500000 0.500000
0.301767 0.056035 0.088740 0.300000 0.000000 0.600000
0.428376 -0.294829 0.223666 0.300000 0.000000 0.600000
0.356704 0.373476 -0.331847 0.300000 0.000000 0.600000
0.303423 -0.154871 0.004509 1.000000 0.000000 0.000000
0.378155 -0.074581 -0.309948 0.600000 0.300000 0.000000
0.483636 -0.040361 0.134077 0.500000 0.000000 0.500000
0.522056 -0.058252 -0.107900 0.800000 0.200000 0.500000
0.522056 -0.021235 -0.256467 0.800000 0.200000 0.500000
0.367311 0.399990 -0.318814 0.300000 0.000000 0.600000
0.540319 0.399990 -0.320385 0.300000 0.000000 0.600000
0.376458 -0.351922 0.088992 0.000000 0.000000 1.000000
0.038642 -0.281932 -0.052752 0.300000 0.600000 0.000000
-0.341327 -0.260729 -0.284501 0.600000 0.300000 0.000000
0.293038 -0.350613 0.049518 0.600000 0.300000 0.000000
0.190610 -0.351922 0.093007 0.000000 0.000000 1.000000
0.051819 -0.350402 0.042017 0.600000 0.300000 0.000000
0.316124 -0.351922 0.089557 0.000000 0.000000 1.000000
-0.685417 -0.015780 0.247306 0.300000 0.000000 0.600000
0.496609 -0.083111 -0.150047 0.800000 0.200000 0.500000
0.070201 0.081482 0.231778 0.300000 0.000000 0.600000
0.611460 0.373476 0.181593 0.300000 0.000000 0.600000
0.496609 -0.118473 -0.211114 0.800000 0.200000 0.500000
-0.622903 -0.058742 -0.309948 0.600000 0.300000 0.000000
-0.179447 0.399990 0.194588 0.300000 0.000000 0.600000
-0.282016 -0.261438 -0.284501 0.600000 0.300000 0.000000
0.496609 -0.058822 -0.174539 0.800000 0.200000 0.500000
0.458393 0.399990 0.428520 0.300000 0.000000 0.600000
0.177851 -0.245030 0.289669 0.500000 0.000000 0.500000
-0.640740 0.399990 -0.116259 0.300000 0.000000 0.600000
0.129354 -0.221064 0.327839 0.500000 0.000000 0.500000
-0.357686 0.399990 0.350523 0.300000 0.000000 0.600000
-0.031932 0.373476 0.339880 0.300000 0.000000 0.600000
-0.685417 -0.287537 -0.083091 0.300000 0.000000 0.600000
0.488498 -0.231212 0.216374 0.000000 0.500000 0.500000
-0.460563 -0.296613 -0.309948 0.600000 0.300000 0.000000
-0.767476 0.373476 0.125787 0.300000 0.000000 0.600000
0.101501 -0.351922 -0.169348 0.000000 0.000000 1.000000
-0.685417 -0.288620 0.050533 0.300000 0.000000 0.600000
0.100744 -0.094527 0.289669 0.300000 0.000000 0.600000
0.628090 0.373476 0.408086 0.300000 0.000000 0.600000
0.300241 0.029449 0.327450 0.500000 0.500000 0.000000
-0.063486 0.373476 -0.307173 0.300000 0.000000 0.600000
0.076739 -0.257590 0.289669 0.500000 0.000000 0.500000
0.331872 0.372602 0.385209 0.000000 0.000000 1.000000
0.496609 -0.235313 -0.194246 0.800000 0.200000 0.500000
0.129101 -0.014914 0.154106 0.600000 0.000000 0.300000
0.085698 -0.351922 -0.075382 0.000000 0.000000 1.000000
0.000397 -0.140102 0.195834 0.600000 0.000000 0.300000
0.429045 -0.033082 0.302003 0.500000 0.500000 0.000000
-0.428042 0.075370 -0.284501 0.600000 0.300000 0.000000
0.058418 0.081482 -0.279628 0.300000 0.000000 0.600000
-0.717292 0.373476 0.170960 0.300000 0.000000 0.600000
-0.685417 -0.262523 -0.025805 0.300000 0.000000 0.600000
0.405687 -0.278459 0.302392 0.500000 0.000000 0.500000
0.490248 -0.256074 0.162247 0.000000 0.500000 0.500000
0.461679 -0.029438 -0.309948 0.600000 0.300000 0.000000
0.522056 -0.001969 0.003313 0.800000 0.200000 0.500000
-0.531204 0.373476 0.256798 0.300000 0.000000 0.600000
0.153952 -0.351922 0.121570 0.000000 0.000000 1.000000
-0.023310 -0.164657 -0.284501 0.600000 0.300000 0.000000
0.352692 -0.244695 -0.309948 0.600000 0.300000 0.000000
-0.659970 -0.099680 0.253977 0.300000 0.000000 0.600000
0.082554 -0.153335 0.302392 0.300000 0.000000 0.600000
-0.758661 0.373476 0.270713 0.300000 0.000000 0.600000
-0.713096 0.399990 0.304189 0.300000 0.000000 0.600000
0.096056 0.056035 0.225186 0.300000 0.000000 0.600000
-0.683618 -0.142311 0.032827 0.000000 1.000000 0.000000
0.199240 0.344224 0.361383 0.000000 0.000000 1.000000
0.025844 -0.148707 0.221201 0.600000 0.000000 0.300000
0.249343 -0.014914 0.188427 0.600000 0.000000 0.300000
-0.368717 0.373476 -0.180666 0.300000 0.000000 0.600000
-0.677412 0.399990 0.280368 0.300000 0.000000 0.600000
-0.009030 0.373476 -0.027653 0.300000 0.000000 0.600000
-0.792817 0.399990 0.034392 0.300000 0.000000 0.600000
0.032206 -0.122838 0.272776 0.800000 0.200000 0.500000
0.303699 0.373476 0.155945 0.300000 0.000000 0.600000
0.496609 0.015115 -0.211773 0.800000 0.200000 0.500000
0.175167 0.399990 0.412341 0.300000 0.000000 0.600000
0.538480 0.399990 -0.230382 0.300000 0.000000 0.600000
0.486177 0.375115 -0.295306 0.600000 0.000000 0.300000
0.077816 -0.092607 0.327839 0.300000 0.000000 0.600000
0.649915 0.384179 -0.124984 0.300000 0.000000 0.600000
0.341399 0.025670 -0.168763 0.300000 0.600000 0.000000
-0.468691 0.373476 -0.331689 0.300000 0.000000 0.600000
-0.416401 0.373476 0.160108 0.300000 0.000000 0.600000
-0.712847 0.071334 0.025352 0.000000 1.000000 0.000000
0.169071 0.373476 -0.212546 0.300000 0.000000 0.600000
0.471705 0.373476 -0.185142 0.300000 0.000000 0.600000
0.157787 -0.351922 0.010836 0.000000 0.000000 1.000000
0.496609 -0.151637 0.226123 0.800000 0.200000 0.500000
-0.685417 -0.003715 -0.156922 0.300000 0.000000 0.600000
0.409183 -0.326476 -0.160039 0.000000 0.000000 1.000000
-0.449469 -0.379136 0.045216 0.600000 0.300000 0.000000
0.467137 -0.219065 0.327839 0.500000 0.000000 0.500000
0.000397 -0.343359 -0.243988 0.000000 0.000000 1.000000
0.064500 -0.294829 0.110054 0.300000 0.000000 0.600000
0.333829 -0.326476 -0.157637 0.000000 0.000000 1.000000
0.288735 -0.302975 0.289669 0.500000 0.000000 0.500000
0.528505 0.373946 -0.360664 0.300000 0.000000 0.600000
0.485276 -0.231212 -0.095783 0.000000 0.500000 0.500000
-0.224339 0.141231 -0.284501 0.600000 0.300000 0.000000
0.239524 0.027506 -0.309948 0.600000 0.300000 0.000000
0.000397 -0.213480 -0.073090 0.600000 0.000000 0.300000
0.072857 0.399990 0.164054 0.300000 0.000000 0.600000
-0.384861 0.373476 0.184044 0.300000 0.000000 0.600000
-0.258955 0.373476 0.151628 0.300000 0.000000 0.600000
-0.452747 0.101077 -0.284501 0.600000 0.300000 0.000000
-0.806082 0.399990 -0.346273 0.300000 0.000000 0.600000
0.313636 -0.294829 0.269498 0.300000 0.000000 0.600000
0.242169 -0.192510 -0.284501 0.600000 0.300000 0.000000
0.630335 0.373476 0.132527 0.300000 0.000000 0.600000
0.458522 -0.294829 0.230436 0.300000 0.000000 0.600000
-0.320036 -0.326606 -0.284501 0.600000 0.300000 0.000000
0.157022 0.040863 0.327450 0.500000 0.500000 0.000000
0.086041 0.373476 0.437155 0.300000 0.000000 0.600000
0.023750 0.399990 -0.208253 0.300000 0.000000 0.600000
0.522056 -0.197428 -0.081168 0.800000 0.200000 0.500000
-0.037423 0.399990 -0.333288 0.300000 0.000000 0.600000
0.278721 0.351654 0.361266 0.000000 0.000000 1.000000
0.502514 -0.326476 0.081699 0.800000 0.200000 0.500000
0.270007 0.399990 0.359784 0.300000 0.000000 0.600000
-0.494695 0.373476 0.354520 0.300000 0.000000 0.600000
0.486002 -0.252035 -0.284501 0.600000 0.300000 0.000000
-0.459808 0.399990 0.409030 0.300000 0.000000 0.600000
0.179723 -0.065808 0.325512 0.300000 0.000000 0.600000
0.343928 -0.282040 0.302392 0.500000 0.000000 0.500000
0.172771 0.399990 0.303040 0.300000 0.000000 0.600000
-0.590767 0.373476 0.399862 0.300000 0.000000 0.600000
0.510581 -0.326476 -0.114441 0.800000 0.200000 0.500000
0.198982 0.041089 -0.309948 0.600000 0.300000 0.000000
-0.659970 -0.273492 -0.266560 0.300000 0.000000 0.600000
0.522056 -0.130073 0.154385 0.800000 0.200000 0.500000
0.000397 0.006781 0.125102 0.600000 0.000000 0.300000
0.520311 -0.552701 -0.011326 0.600000 0.000000 0.300000
0.502793 -0.114551 0.300775 0.800000 0.200000 0.500000
-0.475391 0.399990 -0.162338 0.300000 0.000000 0.600000
-0.683540 -0.217251 0.038976 0.000000 1.000000 0.000000
-0.706210 0.373476 -0.168863 0.300000 0.000000 0.600000
0.283280 0.056035 0.270065 0.300000 0.000000 0.600000
0.409845 0.373476 0.330585 0.300000 0.000000 0.600000
0.000397 -0.272707 0.117635 0.600000 0.000000 0.300000
0.144837 -0.351922 -0.224233 0.000000 0.000000 1.000000
0.522056 -0.225591 -0.126557 0.800000 0.200000 0.500000
0.311382 -0.014914 0.140974 0.600000 0.000000 0.300000
0.054457 -0.154871 -0.076167 1.000000 0.000000 0.000000
0.046882 0.081482 0.084432 0.300000 0.000000 0.600000
0.262264 0.052744 0.302003 0.500000 0.500000 0.000000
-0.368477 0.099058 -0.284501 0.600000 0.300000 0.000000
0.134581 -0.169640 -0.284501 0.600000 0.300000 0.000000
-0.683793 0.363100 -0.145960 0.800000 0.200000 0.500000
-0.028965 -0.209789 -0.309948 0.600000 0.300000 0.000000
0.368001 0.073837 -0.284501 0.600000 0.300000 0.000000
0.318468 0.373476 -0.335410 0.300000 0.000000 0.600000
0.000397 -0.252275 -0.010461 0.600000 0.000000 0.300000
0.025844 -0.006542 0.142067 0.600000 0.000000 0.300000
-0.677048 -0.211674 -0.284501 0.300000 0.000000 0.600000
0.403663 -0.107935 0.302392 0.300000 0.000000 0.600000
-0.659970 -0.167785 0.224660 0.300000 0.000000 0.600000
0.501633 -0.138381 -0.309948 0.600000 0.300000 0.000000
0.123290 -0.294829 -0.091489 0.300000 0.000000 0.600000
0.178256 0.373476 0.137442 0.300000 0.000000 0.600000
-0.212786 0.399990 0.097204 0.300000 0.000000 0.600000
0.549939 0.343030 -0.232939 0.300000 0.000000 0.600000
0.045121 -0.166019 -0.309948 0.600000 0.300000 0.000000
-0.659970 -0.299741 -0.017302 0.300000 0.000000 0.600000
-0.048220 0.399990 -0.074753 0.300000 0.000000 0.600000
-0.452735 0.034479 -0.309948 0.600000 0.300000 0.000000
0.000397 -0.263893 -0.075136 0.600000 0.000000 0.300000
0.000397 -0.205106 0.192566 0.600000 0.000000 0.300000
0.461696 -0.154871 0.272631 1.000000 0.000000 0.000000
0.241941 0.373476 0.080625 0.300000 0.000000 0.600000
-0.075487 0.399990 0.148966 0.300000 0.000000 0.600000
-0.476545 0.338760 0.388209 0.000000 0.000000 1.000000
0.141635 0.373476 0.042900 0.300000 0.000000 0.600000
0.025844 -0.224604 -0.161963 0.600000 0.000000 0.300000
0.002530 0.373476 -0.158372 0.300000 0.000000 0.600000
-0.659970 0.052685 0.221662 0.300000 0.000000 0.600000
0.164642 0.373476 -0.129548 0.300000 0.000000 0.600000
0.371140 -0.256731 -0.155650 0.600000 0.000000 0.300000
0.025844 0.027952 -0.140293 0.600000 0.000000 0.300000
0.522056 0.028858 -0.172374 0.800000 0.200000 0.500000
0.000397 -0.193881 0.009531 0.600000 0.000000 0.300000
0.165430 -0.294829 0.118743 0.300000 0.000000 0.600000
0.038146 0.373476 -0.205483 0.300000 0.000000 0.600000
-0.640417 0.399990 -0.050816 0.300000 0.000000 0.600000
0.405814 0.027757 0.289279 0.500000 0.500000 0.000000
-0.700833 0.399990 0.190595 0.300000 0.000000 0.600000
-0.132427 0.399990 0.357068 0.300000 0.000000 0.600000
0.514965 0.399990 0.216698 0.300000 0.000000 0.600000
0.513873 0.056035 0.007465 0.300000 0.000000 0.600000
0.244647 -0.257130 -0.284501 0.600000 0.300000 0.000000
-0.232140 -0.376374 0.020956 0.600000 0.300000 0.000000
0.025844 -0.252824 -0.050623 0.600000 0.000000 0.300000
-0.183562 0.399990 -0.168327 0.300000 0.000000 0.600000
-0.567225 0.373476 -0.092357 0.300000 0.000000 0.600000
-0.544070 0.399990 -0.239647 0.300000 0.000000 0.600000
-0.020111 0.373476 0.410235 0.300000 0.000000 0.600000
0.078366 -0.326476 0.215074 0.000000 0.000000 1.000000
0.247999 0.081482 0.182584 0.300000 0.000000 0.600000
0.247888 -0.342682 -0.284501 0.600000 0.300000 0.000000
-0.427106 -0.279986 -0.284501 0.600000 0.300000 0.000000
-0.718566 0.399990 -0.147077 0.300000 0.000000 0.600000
0.215246 0.399990 -0.293710 0.300000 0.000000 0.600000
0.236747 0.081482 0.247174 0.300000 0.000000 0.600000
0.546992 -0.571195 -0.334319 0.000000 0.500000 0.500000
-0.659970 -0.118218 -0.008758 0.300000 0.000000 0.600000
