ply
format ascii 1.0
element vertex 630
property float x
property float y
property float z
property float nx
property float ny
property float nz
property uchar red
property uchar green
property uchar blue
property float opacity
end_header
-0.448713 0.399989 -0.270147 0.000000 -1.000000 0.000000 230 147 54 1.000000
0.028316 -0.351757 -0.288758 0.000000 1.000000 0.000000 212 111 20 1.000000
0.186349 -0.294829 0.264680 0.000000 1.000000 0.000000 226 226 226 1.000000
0.478851 -0.091255 0.242345 0.000000 -1.000000 0.000000 234 150 40 1.000000
-0.743706 0.399989 -0.259239 0.000000 -1.000000 0.000000 228 147 42 1.000000
-0.355350 0.399989 -0.163841 0.000000 1.000000 0.000000 235 148 46 1.000000
-0.600705 -0.298717 -0.309948 0.000000 0.000000 -1.000000 233 138 39 1.000000
0.096847 0.081482 -0.199297 0.000000 1.000000 0.000000 226 143 46 1.000000
0.417689 -0.091255 0.292497 0.000000 -1.000000 0.000000 254 168 60 1.000000
-0.096433 0.399989 -0.029409 0.000000 -1.000000 0.000000 243 174 66 1.000000
-0.673127 0.373476 -0.219208 0.000000 1.000000 0.000000 235 149 47 1.000000
-0.431861 0.373476 0.419628 0.000000 1.000000 0.000000 220 132 25 1.000000
-0.555043 0.399989 0.070343 0.000000 1.000000 0.000000 246 140 48 1.000000
0.071533 -0.326476 0.039075 0.000000 1.000000 0.000000 234 151 38 1.000000
0.248187 0.399989 -0.236633 0.000000 1.000000 0.000000 235 142 55 1.000000
-0.070120 -0.006256 -0.284501 0.000000 0.000000 1.000000 234 148 36 1.000000
-0.378771 0.373476 -0.096576 0.000000 1.000000 0.000000 238 142 29 1.000000
0.191219 0.106755 -0.284501 0.000000 0.000000 -1.000000 245 173 61 1.000000
0.548127 -0.538528 0.382381 1.000000 0.000000 0.000000 22 22 22 1.000000
0.172201 -0.326476 -0.195246 0.000000 1.000000 0.000000 209 119 10 1.000000
-0.084034 -0.049877 -0.284501 0.000000 0.000000 1.000000 243 142 41 1.000000
-0.197704 0.373476 0.189304 0.000000 -1.000000 0.000000 228 144 38 1.000000
0.293830 0.373476 -0.235403 0.000000 1.000000 0.000000 250 164 64 1.000000
0.265896 -0.078134 0.302392 0.000000 0.000000 1.000000 242 167 56 1.000000
-0.399902 -0.121841 -0.309948 0.000000 0.000000 -1.000000 245 142 46 1.000000
-0.205299 0.373476 -0.172956 0.000000 1.000000 0.000000 214 135 28 1.000000
0.245734 0.009988 0.327449 0.000000 0.000000 1.000000 240 153 33 1.000000
-0.442693 0.335306 0.382474 0.000000 -1.000000 0.000000 22 22 22 1.000000
0.369425 -0.377369 0.054390 0.000000 -1.000000 0.000000 22 22 22 1.000000
-0.659970 -0.038816 0.118720 -1.000000 0.000000 0.000000 214 120 21 1.000000
-0.334361 0.399989 0.275099 0.000000 -1.000000 0.000000 214 111 13 1.000000
0.351049 -0.294829 0.119295 0.000000 -1.000000 0.000000 255 255 255 1.000000
0.517327 -0.326476 -0.231144 0.000000 1.000000 0.000000 239 158 54 1.000000
-0.220264 0.373476 -0.225681 0.000000 -1.000000 0.000000 225 127 24 1.000000
0.528750 0.399989 0.191744 0.000000 -1.000000 0.000000 248 152 37 1.000000
0.490249 0.044670 0.132979 1.000000 0.000000 0.000000 225 134 32 1.000000
0.355799 -0.270695 -0.309948 0.000000 0.000000 -1.000000 245 149 48 1.000000
0.314878 -0.326476 -0.018042 0.000000 -1.000000 0.000000 233 154 47 1.000000
0.126707 -0.294829 0.153094 0.000000 1.000000 0.000000 226 226 226 1.000000
0.354845 -0.014914 -0.009654 0.000000 1.000000 0.000000 226 226 226 1.000000
-0.509782 0.357741 0.389214 0.000000 0.000000 1.000000 22 22 22 1.000000
-0.409232 -0.324800 -0.309948 0.000000 0.000000 -1.000000 239 144 46 1.000000
0.364293 0.056035 -0.146008 0.000000 1.000000 0.000000 219 140 23 1.000000
-0.293462 -0.351923 0.024291 0.000000 1.000000 0.000000 22 22 22 1.000000
0.055133 -0.351923 -0.183057 0.000000 1.000000 0.000000 227 136 28 1.000000
-0.467701 0.373476 0.125832 0.000000 -1.000000 0.000000 245 154 64 1.000000
-0.008267 0.399989 -0.016091 0.000000 1.000000 0.000000 245 160 57 1.000000
0.319542 -0.294829 0.011664 0.000000 1.000000 0.000000 226 226 226 1.000000
-0.530812 0.124022 -0.284501 0.000000 0.000000 -1.000000 212 123 43 1.000000
0.243148 -0.031618 0.327449 0.000000 0.000000 1.000000 248 165 55 1.000000
-0.555660 0.399989 0.152018 0.000000 -1.000000 0.000000 196 92 13 1.000000
-0.659970 -0.293104 -0.017778 1.000000 0.000000 0.000000 247 163 56 1.000000
0.017264 -0.351923 -0.139012 0.000000 -1.000000 0.000000 236 132 23 1.000000
-0.303535 0.399989 -0.283393 0.000000 1.000000 0.000000 212 118 16 1.000000
-0.694481 0.373476 0.392473 0.000000 -1.000000 0.000000 232 151 51 1.000000
0.522056 -0.542040 0.135614 -1.000000 0.000000 0.000000 22 22 22 1.000000
0.069697 -0.171681 -0.284501 0.000000 0.000000 1.000000 231 133 35 1.000000
-0.334724 -0.256875 -0.309948 0.000000 0.000000 -1.000000 235 153 42 1.000000
0.179297 -0.264700 -0.155650 0.000000 0.000000 1.000000 253 174 69 1.000000
0.219597 -0.168207 0.327839 0.000000 0.000000 1.000000 227 140 28 1.000000
0.247544 -0.014914 0.163286 0.000000 -1.000000 0.000000 255 255 255 1.000000
0.452750 0.081482 -0.151549 0.000000 -1.000000 0.000000 218 109 6 1.000000
-0.659970 -0.135124 0.247817 1.000000 0.000000 0.000000 245 161 47 1.000000
0.489581 0.048703 -0.098881 0.000000 -1.000000 0.000000 226 141 47 1.000000
-0.711488 -0.535311 0.224664 -1.000000 0.000000 0.000000 22 22 22 1.000000
0.276869 0.056035 -0.017497 0.000000 1.000000 0.000000 212 130 25 1.000000
-0.659970 -0.151782 0.175285 -1.000000 0.000000 0.000000 245 176 70 1.000000
0.202228 -0.326476 0.005372 0.000000 -1.000000 0.000000 236 140 42 1.000000
0.008568 -0.292374 -0.309948 0.000000 0.000000 1.000000 230 129 47 1.000000
-0.207671 0.373476 0.062157 0.000000 1.000000 0.000000 254 166 58 1.000000
0.417737 -0.351923 -0.082490 0.000000 -1.000000 0.000000 251 165 57 1.000000
0.348400 -0.326476 0.224145 0.000000 1.000000 0.000000 220 122 35 1.000000
-0.252350 0.373476 0.061472 0.000000 -1.000000 0.000000 254 166 63 1.000000
-0.686583 -0.530050 0.135919 0.000000 1.000000 0.000000 22 22 22 1.000000
0.393521 -0.316125 -0.309948 0.000000 0.000000 -1.000000 226 137 17 1.000000
-0.687593 -0.568220 -0.022833 0.000000 1.000000 0.000000 22 22 22 1.000000
0.237534 -0.326476 -0.269446 0.000000 -1.000000 0.000000 216 107 5 1.000000
-0.108194 0.399989 -0.245653 0.000000 1.000000 0.000000 252 166 60 1.000000
0.424796 0.056035 0.188585 0.000000 1.000000 0.000000 247 152 38 1.000000
-0.284856 0.335306 -0.286620 0.000000 -1.000000 0.000000 22 22 22 1.000000
-0.488496 0.399989 0.084681 0.000000 1.000000 0.000000 254 169 58 1.000000
-0.633015 0.376857 0.440107 0.000000 0.000000 1.000000 255 175 66 1.000000
0.085762 0.056035 0.198732 0.000000 1.000000 0.000000 239 158 57 1.000000
-0.141925 -0.025446 -0.309948 0.000000 0.000000 -1.000000 244 153 52 1.000000
-0.571056 0.335306 0.386974 0.000000 1.000000 0.000000 22 22 22 1.000000
-0.710674 0.373476 0.159588 0.000000 1.000000 0.000000 227 132 54 1.000000
0.522056 -0.165253 0.087697 1.000000 0.000000 0.000000 241 142 62 1.000000
0.081097 -0.294829 -0.034022 0.000000 -1.000000 0.000000 255 255 255 1.000000
-0.138922 0.399989 -0.288652 0.000000 1.000000 0.000000 228 139 35 1.000000
-0.685417 -0.242011 -0.209568 -1.000000 0.000000 0.000000 228 153 45 1.000000
-0.012029 0.399989 0.187335 0.000000 -1.000000 0.000000 227 137 31 1.000000
0.285862 -0.294829 0.158972 0.000000 1.000000 0.000000 226 226 226 1.000000
-0.685417 -0.082856 -0.111092 1.000000 0.000000 0.000000 250 172 46 1.000000
0.095046 0.081482 0.105711 0.000000 1.000000 0.000000 233 145 43 1.000000
-0.745392 0.399989 0.251670 0.000000 1.000000 0.000000 245 151 49 1.000000
0.143270 -0.293053 -0.284501 0.000000 0.000000 -1.000000 220 119 28 1.000000
-0.213711 -0.068503 -0.309948 0.000000 0.000000 -1.000000 233 153 43 1.000000
0.037868 0.091346 -0.284501 0.000000 0.000000 1.000000 247 170 62 1.000000
-0.532059 0.399989 -0.148247 0.000000 1.000000 0.000000 245 149 36 1.000000
0.378981 -0.351923 -0.167654 0.000000 -1.000000 0.000000 231 153 42 1.000000
0.136345 -0.014914 -0.089817 0.000000 1.000000 0.000000 226 226 226 1.000000
-0.026279 0.399989 -0.256626 0.000000 -1.000000 0.000000 223 98 33 1.000000
-0.660214 -0.308990 -0.284501 0.000000 0.000000 -1.000000 211 121 26 1.000000
-0.238455 0.399989 0.417831 0.000000 -1.000000 0.000000 199 104 6 1.000000
-0.685238 0.081482 -0.123188 0.000000 1.000000 0.000000 237 155 57 1.000000
0.034795 -0.180318 -0.132704 0.000000 1.000000 0.000000 255 255 255 1.000000
0.055238 -0.355594 0.058405 0.000000 0.000000 -1.000000 22 22 22 1.000000
0.086638 0.373476 0.144970 0.000000 -1.000000 0.000000 231 143 41 1.000000
-0.280221 0.373476 -0.210332 0.000000 -1.000000 0.000000 221 135 31 1.000000
0.379580 0.056035 -0.056986 0.000000 -1.000000 0.000000 240 155 46 1.000000
0.209138 0.373476 0.286636 0.000000 1.000000 0.000000 208 94 2 1.000000
-0.569063 0.373476 0.410402 0.000000 1.000000 0.000000 245 162 56 1.000000
0.420580 0.081482 0.040877 0.000000 1.000000 0.000000 248 142 32 1.000000
-0.458475 0.335306 -0.288925 0.000000 -1.000000 0.000000 22 22 22 1.000000
0.568294 0.373476 0.265333 0.000000 -1.000000 0.000000 231 151 47 1.000000
-0.097195 -0.273076 -0.309948 0.000000 0.000000 1.000000 231 161 42 1.000000
-0.244473 -0.088486 -0.284501 0.000000 0.000000 1.000000 221 121 21 1.000000
0.522056 -0.173881 0.191781 -1.000000 0.000000 0.000000 236 155 59 1.000000
0.067996 -0.232443 0.302392 0.000000 0.000000 -1.000000 237 145 58 1.000000
-0.776071 0.373476 0.078471 0.000000 1.000000 0.000000 200 106 7 1.000000
0.319207 0.399989 0.069693 0.000000 1.000000 0.000000 234 139 40 1.000000
-0.628786 0.373476 0.043339 0.000000 -1.000000 0.000000 224 126 11 1.000000
0.039213 0.373476 -0.143566 0.000000 1.000000 0.000000 230 136 25 1.000000
-0.079347 0.399989 -0.305288 0.000000 -1.000000 0.000000 210 135 37 1.000000
0.239485 0.073562 -0.284501 0.000000 0.000000 -1.000000 218 130 24 1.000000
0.400255 0.399989 -0.357177 0.000000 -1.000000 0.000000 214 130 22 1.000000
-0.551456 0.399989 -0.327315 0.000000 -1.000000 0.000000 205 97 22 1.000000
0.490248 -0.161149 -0.111824 1.000000 0.000000 0.000000 241 164 60 1.000000
0.510296 0.081482 0.043748 0.000000 -1.000000 0.000000 234 149 47 1.000000
0.299590 -0.154872 -0.138203 0.000000 1.000000 0.000000 226 226 226 1.000000
0.000397 -0.049382 0.166807 1.000000 0.000000 0.000000 236 152 44 1.000000
-0.247020 0.121043 -0.284501 0.000000 0.000000 1.000000 238 154 40 1.000000
0.227265 -0.154872 -0.128321 0.000000 1.000000 0.000000 226 226 226 1.000000
0.048770 0.373476 0.328391 0.000000 -1.000000 0.000000 241 147 37 1.000000
0.177186 0.399989 -0.300898 0.000000 1.000000 0.000000 242 157 57 1.000000
-0.450743 0.399989 -0.234762 0.000000 -1.000000 0.000000 211 122 22 1.000000
-0.028122 -0.157814 -0.284501 0.000000 0.000000 -1.000000 249 177 60 1.000000
0.185518 -0.301694 0.302392 0.000000 0.000000 -1.000000 250 147 32 1.000000
-0.810598 0.373476 0.321381 0.000000 1.000000 0.000000 228 135 35 1.000000
-0.513798 -0.230447 -0.309948 0.000000 0.000000 1.000000 233 140 28 1.000000
0.363886 -0.154872 0.033736 0.000000 1.000000 0.000000 226 226 226 1.000000
-0.320098 -0.068217 -0.309948 0.000000 0.000000 -1.000000 248 157 58 1.000000
0.496609 -0.202923 0.190313 1.000000 0.000000 0.000000 243 159 46 1.000000
-0.813275 0.374931 0.104195 1.000000 0.000000 0.000000 232 113 31 1.000000
-0.786019 0.373476 -0.064463 0.000000 1.000000 0.000000 250 160 46 1.000000
0.025844 -0.286595 -0.275614 1.000000 0.000000 0.000000 229 145 42 1.000000
0.120227 -0.351923 0.179707 0.000000 -1.000000 0.000000 244 153 44 1.000000
-0.242899 0.373476 0.231638 0.000000 1.000000 0.000000 228 139 27 1.000000
-0.685417 -0.564614 0.179804 1.000000 0.000000 0.000000 22 22 22 1.000000
0.390897 0.373476 -0.057449 0.000000 -1.000000 0.000000 232 136 50 1.000000
-0.685417 0.006130 -0.083186 -1.000000 0.000000 0.000000 233 140 35 1.000000
-0.659970 -0.159902 -0.213845 -1.000000 0.000000 0.000000 233 141 35 1.000000
0.295404 0.081482 0.089970 0.000000 1.000000 0.000000 206 110 25 1.000000
0.208499 -0.014914 0.232034 0.000000 -1.000000 0.000000 255 255 255 1.000000
0.350639 -0.351923 0.038458 0.000000 1.000000 0.000000 239 155 42 1.000000
0.522056 -0.021668 0.174454 -1.000000 0.000000 0.000000 221 129 35 1.000000
0.547161 0.220914 0.058405 0.000000 0.000000 -1.000000 22 22 22 1.000000
-0.595525 0.399989 -0.321347 0.000000 1.000000 0.000000 213 99 23 1.000000
-0.761585 0.373476 -0.272941 0.000000 1.000000 0.000000 222 129 27 1.000000
-0.659970 0.026190 -0.269914 -1.000000 0.000000 0.000000 247 159 44 1.000000
0.142334 0.027820 -0.284501 0.000000 0.000000 -1.000000 219 126 22 1.000000
0.000397 -0.299438 -0.040149 1.000000 0.000000 0.000000 246 156 47 1.000000
0.096025 0.074149 0.304874 0.000000 1.000000 0.000000 254 152 64 1.000000
-0.084840 0.399989 0.301768 0.000000 1.000000 0.000000 250 154 46 1.000000
0.404697 -0.014914 -0.015593 0.000000 1.000000 0.000000 226 226 226 1.000000
0.454803 -0.154872 -0.097003 0.000000 1.000000 0.000000 226 226 226 1.000000
-0.681630 -0.351923 -0.023134 0.000000 -1.000000 0.000000 226 97 2 1.000000
0.394538 -0.326476 -0.082780 0.000000 -1.000000 0.000000 227 128 32 1.000000
0.231986 -0.294829 0.223508 0.000000 -1.000000 0.000000 255 255 255 1.000000
0.165696 -0.294829 0.192236 0.000000 -1.000000 0.000000 255 255 255 1.000000
-0.637942 0.399989 -0.090359 0.000000 -1.000000 0.000000 205 100 38 1.000000
0.276336 -0.326476 0.077057 0.000000 1.000000 0.000000 227 148 36 1.000000
0.299726 0.081482 -0.187315 0.000000 -1.000000 0.000000 249 157 47 1.000000
0.000397 -0.248083 0.174315 1.000000 0.000000 0.000000 221 125 23 1.000000
-0.659970 -0.315090 -0.069524 -1.000000 0.000000 0.000000 223 114 27 1.000000
-0.652434 0.373476 -0.138378 0.000000 1.000000 0.000000 212 110 3 1.000000
0.489102 0.373476 0.168713 0.000000 1.000000 0.000000 204 100 19 1.000000
-0.708099 0.373476 0.239154 0.000000 1.000000 0.000000 223 127 20 1.000000
0.196100 0.056035 0.146928 0.000000 -1.000000 0.000000 244 153 45 1.000000
0.496609 -0.305767 0.240845 -1.000000 0.000000 0.000000 217 141 36 1.000000
-0.685417 0.032912 -0.059611 -1.000000 0.000000 0.000000 238 148 47 1.000000
0.189473 -0.014914 0.180166 0.000000 -1.000000 0.000000 255 255 255 1.000000
0.480751 -0.094622 0.302392 0.000000 0.000000 1.000000 223 131 26 1.000000
0.000397 -0.173306 -0.074853 -1.000000 0.000000 0.000000 238 153 47 1.000000
-0.685417 -0.317476 0.284477 1.000000 0.000000 0.000000 242 158 56 1.000000
-0.468449 0.399989 -0.013612 0.000000 1.000000 0.000000 218 125 13 1.000000
0.417292 -0.014914 0.024614 0.000000 -1.000000 0.000000 255 255 255 1.000000
-0.007950 0.373476 0.080819 0.000000 1.000000 0.000000 238 151 45 1.000000
0.398785 -0.154872 0.265357 0.000000 -1.000000 0.000000 255 255 255 1.000000
0.522056 -0.534870 -0.089135 -1.000000 0.000000 0.000000 22 22 22 1.000000
0.518816 -0.377369 0.038476 0.000000 1.000000 0.000000 22 22 22 1.000000
0.275396 -0.154872 0.079967 0.000000 -1.000000 0.000000 255 255 255 1.000000
0.085299 -0.326476 -0.054999 0.000000 -1.000000 0.000000 243 152 49 1.000000
-0.082604 0.399989 -0.129039 0.000000 1.000000 0.000000 235 138 30 1.000000
-0.050398 -0.029652 -0.309948 0.000000 0.000000 -1.000000 234 166 57 1.000000
0.522056 0.012628 -0.141004 1.000000 0.000000 0.000000 228 143 46 1.000000
0.000397 -0.184813 0.123050 1.000000 0.000000 0.000000 253 184 64 1.000000
0.183020 -0.326476 0.066589 0.000000 -1.000000 0.000000 216 132 22 1.000000
-0.772513 0.399989 -0.296543 0.000000 1.000000 0.000000 241 144 36 1.000000
0.476400 0.399989 -0.221990 0.000000 -1.000000 0.000000 243 160 49 1.000000
-0.381298 0.399989 -0.067051 0.000000 -1.000000 0.000000 207 104 17 1.000000
0.522056 0.362693 -0.222655 1.000000 0.000000 0.000000 22 22 22 1.000000
-0.058853 0.373476 -0.210996 0.000000 -1.000000 0.000000 241 164 57 1.000000
0.312546 0.026366 0.327449 0.000000 0.000000 -1.000000 237 133 27 1.000000
-0.342433 -0.002887 -0.309948 0.000000 0.000000 1.000000 238 150 38 1.000000
0.032350 0.081482 -0.178497 0.000000 1.000000 0.000000 230 147 46 1.000000
0.032186 -0.046759 -0.309948 0.000000 0.000000 1.000000 231 136 40 1.000000
-0.307160 -0.041184 -0.284501 0.000000 0.000000 1.000000 241 153 47 1.000000
0.159055 -0.014914 0.243796 0.000000 -1.000000 0.000000 255 255 255 1.000000
0.364198 0.081482 0.086281 0.000000 1.000000 0.000000 228 127 27 1.000000
-0.659970 -0.201593 0.000413 1.000000 0.000000 0.000000 204 100 11 1.000000
0.030047 0.373476 -0.317894 0.000000 -1.000000 0.000000 244 165 60 1.000000
-0.138331 0.373476 0.000060 0.000000 -1.000000 0.000000 250 161 51 1.000000
0.496609 -0.079518 0.048625 -1.000000 0.000000 0.000000 222 140 34 1.000000
0.141598 0.338503 -0.310573 0.000000 0.000000 1.000000 22 22 22 1.000000
0.099457 -0.351923 -0.257060 0.000000 -1.000000 0.000000 249 164 63 1.000000
0.373785 -0.326476 -0.124110 0.000000 1.000000 0.000000 226 126 26 1.000000
-0.685417 -0.249618 0.051965 -1.000000 0.000000 0.000000 232 146 25 1.000000
-0.659970 -0.138763 0.002860 -1.000000 0.000000 0.000000 250 182 73 1.000000
-0.233915 0.373476 0.369977 0.000000 -1.000000 0.000000 22 22 22 1.000000
0.349545 0.373476 -0.336190 0.000000 -1.000000 0.000000 199 122 18 1.000000
0.185978 0.033254 0.327449 0.000000 0.000000 -1.000000 249 167 62 1.000000
0.150257 0.399989 0.340399 0.000000 -1.000000 0.000000 237 139 40 1.000000
-0.685417 -0.021250 -0.006940 -1.000000 0.000000 0.000000 241 153 47 1.000000
0.393914 -0.014914 0.139792 0.000000 -1.000000 0.000000 255 255 255 1.000000
0.316810 0.056035 -0.147352 0.000000 -1.000000 0.000000 250 164 42 1.000000
0.168731 0.029477 -0.168763 0.000000 0.000000 -1.000000 242 152 52 1.000000
-0.708009 0.335306 0.163693 0.000000 1.000000 0.000000 22 22 22 1.000000
0.035643 0.056035 -0.254843 0.000000 1.000000 0.000000 255 157 39 1.000000
0.232088 0.114475 -0.284501 0.000000 0.000000 1.000000 241 162 57 1.000000
0.214868 0.062351 0.302002 0.000000 0.000000 -1.000000 249 164 57 1.000000
0.459026 -0.351923 -0.190372 0.000000 1.000000 0.000000 228 139 39 1.000000
0.616236 0.373476 0.013488 0.000000 -1.000000 0.000000 222 135 22 1.000000
0.025844 -0.018486 -0.108966 -1.000000 0.000000 0.000000 234 143 32 1.000000
-0.253694 0.399989 0.011531 0.000000 1.000000 0.000000 245 164 58 1.000000
0.448493 -0.294829 0.136094 0.000000 1.000000 0.000000 226 226 226 1.000000
-0.437489 0.116476 -0.284501 0.000000 0.000000 1.000000 243 156 45 1.000000
0.000397 -0.296236 0.230011 -1.000000 0.000000 0.000000 225 149 54 1.000000
-0.049889 -0.355031 0.020235 0.000000 0.000000 1.000000 22 22 22 1.000000
0.108987 0.399989 0.000400 0.000000 -1.000000 0.000000 252 165 46 1.000000
0.381111 0.373476 0.228923 0.000000 -1.000000 0.000000 233 145 31 1.000000
-0.812696 0.399296 0.032460 -0.720594 0.693292 -0.009520 58 58 58 1.000000
-0.685417 -0.170017 0.071437 -1.000000 0.000000 0.000000 199 101 3 1.000000
-0.394164 0.373476 -0.223274 0.000000 -1.000000 0.000000 202 106 0 1.000000
-0.098931 0.364586 -0.284501 0.000000 0.000000 1.000000 22 22 22 1.000000
0.576859 0.399989 -0.048616 0.000000 1.000000 0.000000 229 144 25 1.000000
0.119629 -0.258034 -0.284501 0.000000 0.000000 1.000000 249 174 52 1.000000
-0.793593 0.373476 0.210331 0.000000 -1.000000 0.000000 246 166 58 1.000000
0.192146 0.373476 -0.195379 0.000000 -1.000000 0.000000 244 148 42 1.000000
0.416226 0.056035 -0.173783 0.000000 -1.000000 0.000000 224 137 35 1.000000
0.288003 0.081482 0.169922 0.000000 1.000000 0.000000 238 154 47 1.000000
0.014436 0.081482 0.010316 0.000000 1.000000 0.000000 240 161 54 1.000000
0.547737 -0.530050 -0.192585 0.000000 -1.000000 0.000000 22 22 22 1.000000
-0.265498 0.373476 0.160471 0.000000 1.000000 0.000000 207 110 14 1.000000
0.168931 0.399989 0.244183 0.000000 1.000000 0.000000 243 157 30 1.000000
0.319967 0.399989 0.411393 0.000000 -1.000000 0.000000 242 149 38 1.000000
0.442551 0.373476 0.125971 0.000000 -1.000000 0.000000 252 170 58 1.000000
0.061041 -0.014914 0.248088 0.000000 -1.000000 0.000000 255 255 255 1.000000
-0.711488 0.321271 0.025439 1.000000 0.000000 0.000000 22 22 22 1.000000
-0.029132 0.373476 0.116759 0.000000 1.000000 0.000000 247 157 49 1.000000
-0.286122 -0.133060 -0.309948 0.000000 0.000000 1.000000 232 175 70 1.000000
0.490249 -0.033975 0.296415 1.000000 0.000000 0.000000 242 160 44 1.000000
0.522056 -0.545722 -0.033913 1.000000 0.000000 0.000000 22 22 22 1.000000
-0.302252 0.399989 -0.317442 0.000000 -1.000000 0.000000 234 141 28 1.000000
0.548127 -0.454715 0.051232 1.000000 0.000000 0.000000 22 22 22 1.000000
0.129798 -0.154872 -0.001773 0.000000 1.000000 0.000000 226 226 226 1.000000
0.000397 -0.132819 -0.241345 -1.000000 0.000000 0.000000 221 118 22 1.000000
-0.685417 0.076402 -0.262403 -1.000000 0.000000 0.000000 251 173 70 1.000000
-0.067384 0.399989 0.165373 0.000000 -1.000000 0.000000 227 136 31 1.000000
-0.685417 0.114981 0.057502 1.000000 0.000000 0.000000 22 22 22 1.000000
0.140039 -0.014914 0.031107 0.000000 1.000000 0.000000 226 226 226 1.000000
-0.659970 -0.162253 0.268856 -1.000000 0.000000 0.000000 235 130 27 1.000000
-0.563915 -0.241077 -0.284501 0.000000 0.000000 1.000000 237 124 42 1.000000
-0.171326 -0.286204 -0.309948 0.000000 0.000000 1.000000 229 126 27 1.000000
0.278897 0.336047 0.389214 0.000000 0.000000 -1.000000 22 22 22 1.000000
-0.685417 -0.011433 -0.114350 1.000000 0.000000 0.000000 223 113 12 1.000000
0.193908 0.399989 0.438661 0.000000 1.000000 0.000000 246 157 68 1.000000
0.201767 0.081482 0.207528 0.000000 1.000000 0.000000 238 160 59 1.000000
0.622671 0.399989 0.183526 0.000000 -1.000000 0.000000 227 129 15 1.000000
0.219537 0.081482 -0.110820 0.000000 1.000000 0.000000 230 134 31 1.000000
0.289463 -0.377369 0.054421 0.000000 -1.000000 0.000000 22 22 22 1.000000
-0.183540 0.399989 0.319170 0.000000 -1.000000 0.000000 219 151 51 1.000000
0.319832 -0.199267 0.327839 0.000000 0.000000 -1.000000 239 161 52 1.000000
0.073119 -0.046379 0.327449 0.000000 0.000000 1.000000 247 163 55 1.000000
-0.659970 -0.030778 -0.054571 -1.000000 0.000000 0.000000 227 103 25 1.000000
0.490248 -0.248223 0.036946 1.000000 0.000000 0.000000 204 104 9 1.000000
0.000397 -0.094146 -0.170560 1.000000 0.000000 0.000000 240 160 57 1.000000
-0.601993 0.373476 0.384622 0.000000 1.000000 0.000000 22 22 22 1.000000
0.096401 0.373476 -0.118854 0.000000 1.000000 0.000000 221 120 16 1.000000
-0.695490 0.399989 -0.311610 0.000000 1.000000 0.000000 235 139 50 1.000000
-0.711463 0.397205 -0.361466 0.000000 0.000000 -1.000000 218 115 22 1.000000
-0.061362 0.369306 0.389214 0.000000 0.000000 1.000000 22 22 22 1.000000
-0.539536 0.019098 -0.309948 0.000000 0.000000 -1.000000 241 150 47 1.000000
0.490249 0.042415 0.278781 -1.000000 0.000000 0.000000 227 135 32 1.000000
-0.157226 0.399989 0.272071 0.000000 -1.000000 0.000000 200 106 6 1.000000
-0.545551 0.399989 0.241201 0.000000 1.000000 0.000000 225 128 26 1.000000
-0.685417 -0.058083 0.216624 1.000000 0.000000 0.000000 232 154 59 1.000000
-0.157659 0.373476 -0.332701 0.000000 1.000000 0.000000 226 125 14 1.000000
0.255412 -0.351923 -0.108338 0.000000 1.000000 0.000000 214 121 21 1.000000
0.253582 0.369114 0.363141 0.000000 0.000000 -1.000000 22 22 22 1.000000
-0.059218 -0.248882 -0.284501 0.000000 0.000000 1.000000 239 157 59 1.000000
-0.204010 -0.327057 -0.309948 0.000000 0.000000 -1.000000 247 157 43 1.000000
-0.659970 -0.269302 0.154726 1.000000 0.000000 0.000000 234 151 32 1.000000
0.522056 -0.275913 0.297876 1.000000 0.000000 0.000000 243 156 46 1.000000
0.634356 0.399989 -0.165250 0.000000 1.000000 0.000000 218 117 12 1.000000
-0.689101 -0.528298 -0.336020 0.000000 0.000000 -1.000000 22 22 22 1.000000
0.419664 -0.154872 0.024470 0.000000 1.000000 0.000000 226 226 226 1.000000
-0.685417 -0.221606 -0.097078 -1.000000 0.000000 0.000000 244 154 40 1.000000
-0.025507 0.335306 -0.288232 0.000000 -1.000000 0.000000 22 22 22 1.000000
0.155530 -0.196435 -0.309948 0.000000 0.000000 -1.000000 229 155 54 1.000000
0.401695 0.373476 0.300603 0.000000 1.000000 0.000000 234 142 36 1.000000
0.029136 -0.351923 0.134092 0.000000 -1.000000 0.000000 229 152 41 1.000000
0.522056 0.336862 -0.027580 1.000000 0.000000 0.000000 22 22 22 1.000000
-0.635317 0.399989 0.270184 0.000000 1.000000 0.000000 231 144 34 1.000000
0.382040 -0.001419 -0.168763 0.000000 0.000000 1.000000 245 158 54 1.000000
0.548127 -0.052723 0.047777 1.000000 0.000000 0.000000 22 22 22 1.000000
0.548127 -0.552826 0.039581 -1.000000 0.000000 0.000000 22 22 22 1.000000
0.377089 -0.326476 0.250213 0.000000 1.000000 0.000000 239 146 41 1.000000
-0.252084 0.399989 -0.044308 0.000000 -1.000000 0.000000 230 121 21 1.000000
0.289765 0.399989 0.120934 0.000000 1.000000 0.000000 241 176 68 1.000000
-0.129496 -0.100005 -0.309948 0.000000 0.000000 -1.000000 221 116 48 1.000000
0.248606 0.399989 -0.315813 0.000000 -1.000000 0.000000 240 165 62 1.000000
0.496609 -0.125968 0.141023 -1.000000 0.000000 0.000000 224 140 29 1.000000
-0.518332 -0.154744 -0.284501 0.000000 0.000000 -1.000000 235 154 39 1.000000
-0.520879 0.399989 0.420839 0.000000 -1.000000 0.000000 206 111 1 1.000000
-0.426059 0.373476 0.099182 0.000000 -1.000000 0.000000 249 159 65 1.000000
0.495672 0.056035 -0.273772 0.000000 -1.000000 0.000000 220 137 46 1.000000
0.447577 -0.294829 0.092169 0.000000 1.000000 0.000000 226 226 226 1.000000
0.496609 -0.068376 -0.123068 -1.000000 0.000000 0.000000 237 158 56 1.000000
0.359671 0.399989 -0.118385 0.000000 1.000000 0.000000 239 154 51 1.000000
0.092195 -0.154872 0.131084 0.000000 -1.000000 0.000000 255 255 255 1.000000
-0.711488 0.116212 0.023680 -1.000000 0.000000 0.000000 22 22 22 1.000000
0.374061 -0.083915 -0.284501 0.000000 0.000000 -1.000000 233 158 45 1.000000
0.522056 -0.177247 -0.210782 1.000000 0.000000 0.000000 210 89 29 1.000000
0.000397 -0.148697 0.054888 1.000000 0.000000 0.000000 245 148 39 1.000000
0.025844 0.001879 0.004639 -1.000000 0.000000 0.000000 221 142 40 1.000000
0.000397 -0.176086 -0.010035 1.000000 0.000000 0.000000 247 170 51 1.000000
0.368550 0.399989 0.245631 0.000000 -1.000000 0.000000 205 120 15 1.000000
0.287045 0.373476 0.237013 0.000000 -1.000000 0.000000 240 150 45 1.000000
-0.129759 -0.279247 -0.284501 0.000000 0.000000 1.000000 242 156 53 1.000000
-0.640793 0.399989 -0.015306 0.000000 -1.000000 0.000000 218 123 14 1.000000
0.548127 0.355948 0.101276 1.000000 0.000000 0.000000 22 22 22 1.000000
-0.269161 0.399989 -0.229531 0.000000 1.000000 0.000000 241 158 39 1.000000
0.281617 -0.014914 0.255893 0.000000 1.000000 0.000000 226 226 226 1.000000
0.548127 -0.531318 0.313874 1.000000 0.000000 0.000000 22 22 22 1.000000
0.025844 -0.198254 0.186471 -1.000000 0.000000 0.000000 239 150 49 1.000000
0.252293 -0.146128 0.332078 -0.130798 -0.168673 0.976955 242 152 47 1.000000
0.023573 -0.377369 0.022961 0.000000 -1.000000 0.000000 22 22 22 1.000000
-0.553982 0.373476 0.172758 0.000000 1.000000 0.000000 242 146 36 1.000000
0.522056 0.007413 0.034075 -1.000000 0.000000 0.000000 22 22 22 1.000000
0.509293 -0.227937 -0.309948 0.000000 0.000000 1.000000 248 165 55 1.000000
-0.243813 -0.308503 -0.284501 0.000000 0.000000 -1.000000 234 139 41 1.000000
0.294242 0.399989 -0.124789 0.000000 -1.000000 0.000000 237 168 54 1.000000
-0.620568 -0.123798 -0.284501 0.000000 0.000000 1.000000 231 147 46 1.000000
0.164741 0.373476 0.017506 0.000000 -1.000000 0.000000 234 141 42 1.000000
0.355265 0.081482 -0.263661 0.000000 1.000000 0.000000 221 129 16 1.000000
-0.685417 0.341655 -0.256495 -1.000000 0.000000 0.000000 22 22 22 1.000000
-0.659970 -0.247931 -0.107348 -1.000000 0.000000 0.000000 219 127 25 1.000000
0.407914 0.081482 -0.051667 0.000000 -1.000000 0.000000 251 167 65 1.000000
0.000397 -0.239371 0.220269 -1.000000 0.000000 0.000000 255 160 58 1.000000
-0.458434 0.399989 0.371433 0.000000 -1.000000 0.000000 232 146 35 1.000000
-0.245861 0.399989 0.151148 0.000000 1.000000 0.000000 226 134 19 1.000000
-0.287794 0.373476 0.065365 0.000000 -1.000000 0.000000 236 145 48 1.000000
0.025844 -0.200168 -0.044049 -1.000000 0.000000 0.000000 234 146 35 1.000000
-0.725370 0.399989 0.294009 0.000000 -1.000000 0.000000 204 102 18 1.000000
0.318795 -0.326476 0.076276 0.000000 1.000000 0.000000 247 163 45 1.000000
0.111392 -0.074780 -0.284501 0.000000 0.000000 -1.000000 241 165 63 1.000000
-0.711488 -0.582379 -0.323643 1.000000 0.000000 0.000000 22 22 22 1.000000
0.249793 -0.326476 0.035739 0.000000 1.000000 0.000000 246 163 64 1.000000
0.000397 0.006547 0.153508 -1.000000 0.000000 0.000000 228 162 55 1.000000
0.388113 -0.075953 0.327839 0.000000 0.000000 1.000000 225 140 36 1.000000
-0.677199 -0.091931 -0.284501 0.000000 0.000000 -1.000000 240 160 56 1.000000
0.024872 -0.093793 -0.284501 0.000000 0.000000 1.000000 251 166 63 1.000000
0.431196 -0.023563 -0.284501 0.000000 0.000000 -1.000000 246 169 64 1.000000
0.201712 -0.326476 0.135790 0.000000 -1.000000 0.000000 255 172 82 1.000000
0.525128 -0.151094 -0.284501 0.000000 0.000000 -1.000000 220 132 29 1.000000
0.079500 -0.294829 0.213797 0.000000 -1.000000 0.000000 255 255 255 1.000000
-0.550763 0.070993 -0.309948 0.000000 0.000000 -1.000000 243 177 57 1.000000
0.025844 -0.115868 0.207958 -1.000000 0.000000 0.000000 244 165 61 1.000000
0.235672 0.399989 0.335989 0.000000 -1.000000 0.000000 219 128 30 1.000000
0.352089 -0.351923 -0.107531 0.000000 -1.000000 0.000000 246 163 55 1.000000
0.364803 0.373476 0.424065 0.000000 -1.000000 0.000000 238 152 43 1.000000
0.522056 -0.055247 -0.144890 1.000000 0.000000 0.000000 209 118 11 1.000000
0.446846 -0.141414 -0.284501 0.000000 0.000000 1.000000 207 110 13 1.000000
0.267314 -0.154872 0.175637 0.000000 -1.000000 0.000000 255 255 255 1.000000
-0.659970 -0.184255 0.091978 1.000000 0.000000 0.000000 241 149 38 1.000000
0.061339 0.373476 -0.026597 0.000000 1.000000 0.000000 251 153 35 1.000000
0.496609 -0.062723 0.182991 -1.000000 0.000000 0.000000 246 152 50 1.000000
0.298629 -0.294829 0.124301 0.000000 1.000000 0.000000 226 226 226 1.000000
-0.259704 0.399989 0.111337 0.000000 -1.000000 0.000000 251 171 63 1.000000
0.228188 -0.326476 0.161498 0.000000 -1.000000 0.000000 233 145 49 1.000000
0.173091 -0.345722 0.315359 0.000000 -1.000000 0.000000 227 132 30 1.000000
0.496609 0.015362 -0.032296 1.000000 0.000000 0.000000 208 97 17 1.000000
0.148778 0.056035 -0.211810 0.000000 -1.000000 0.000000 239 149 50 1.000000
-0.019020 0.373476 -0.333673 0.000000 1.000000 0.000000 248 165 59 1.000000
0.422844 -0.156521 0.327839 0.000000 0.000000 1.000000 234 154 47 1.000000
-0.532451 -0.270727 -0.284501 0.000000 0.000000 1.000000 221 120 22 1.000000
-0.208530 -0.279518 -0.284501 0.000000 0.000000 -1.000000 242 153 52 1.000000
0.386140 0.399989 -0.096841 0.000000 1.000000 0.000000 252 159 41 1.000000
-0.659970 -0.180514 -0.150222 1.000000 0.000000 0.000000 255 165 57 1.000000
0.264076 -0.007602 -0.284501 0.000000 0.000000 -1.000000 210 115 17 1.000000
0.123162 0.014747 0.327449 0.000000 0.000000 -1.000000 246 153 60 1.000000
0.433066 0.056035 0.097986 0.000000 -1.000000 0.000000 250 170 74 1.000000
0.032400 0.010532 0.061844 0.000000 1.000000 0.000000 253 170 63 1.000000
0.139444 0.081482 0.247634 0.000000 1.000000 0.000000 229 141 37 1.000000
-0.711054 0.207783 0.020235 0.000000 0.000000 1.000000 22 22 22 1.000000
0.377865 0.373476 -0.247679 0.000000 -1.000000 0.000000 217 134 32 1.000000
-0.216655 0.399989 0.043774 0.000000 -1.000000 0.000000 207 100 18 1.000000
0.076923 0.056035 0.231024 0.000000 1.000000 0.000000 222 128 39 1.000000
0.457407 -0.294829 0.191082 0.000000 1.000000 0.000000 226 226 226 1.000000
-0.464256 0.076079 -0.309948 0.000000 0.000000 -1.000000 247 159 58 1.000000
0.122121 -0.066271 0.327029 0.290954 -0.714970 -0.635739 234 140 35 1.000000
0.489828 -0.351923 -0.070674 0.000000 -1.000000 0.000000 232 147 40 1.000000
0.174654 -0.159056 -0.284501 0.000000 0.000000 -1.000000 245 159 46 1.000000
0.011777 0.373476 0.014323 0.000000 -1.000000 0.000000 247 158 56 1.000000
0.519203 0.081482 -0.054706 0.000000 -1.000000 0.000000 245 173 72 1.000000
0.041395 -0.213639 -0.284501 0.000000 0.000000 1.000000 252 163 65 1.000000
0.349734 0.081482 0.270545 0.000000 -1.000000 0.000000 226 135 30 1.000000
0.025844 -0.222027 -0.207952 1.000000 0.000000 0.000000 244 155 51 1.000000
0.553664 0.071832 -0.284501 0.000000 0.000000 1.000000 241 158 41 1.000000
0.522056 -0.296166 0.114320 1.000000 0.000000 0.000000 250 154 36 1.000000
-0.326063 0.369605 -0.284501 0.000000 0.000000 1.000000 22 22 22 1.000000
0.197965 0.399989 0.335383 0.000000 -1.000000 0.000000 238 148 46 1.000000
0.527310 -0.318680 -0.309948 0.000000 0.000000 -1.000000 249 158 49 1.000000
-0.655239 -0.024834 -0.309948 0.000000 0.000000 1.000000 231 159 55 1.000000
0.232806 0.081482 -0.026440 0.000000 1.000000 0.000000 228 111 28 1.000000
-0.659970 -0.029775 -0.198674 -1.000000 0.000000 0.000000 221 149 29 1.000000
0.420209 0.373476 0.060884 0.000000 1.000000 0.000000 234 139 34 1.000000
-0.685417 -0.087072 0.270919 1.000000 0.000000 0.000000 210 110 20 1.000000
0.223016 -0.127852 -0.284501 0.000000 0.000000 1.000000 219 117 43 1.000000
0.170965 -0.032610 0.289279 0.000000 0.000000 1.000000 238 153 42 1.000000
0.186698 -0.329136 -0.284501 0.000000 0.000000 -1.000000 202 93 12 1.000000
-0.329936 -0.093412 -0.284501 0.000000 0.000000 1.000000 239 143 31 1.000000
0.437996 -0.066138 0.326896 -0.359323 -0.724602 -0.588081 251 173 69 1.000000
-0.253700 -0.350176 -0.284501 0.000000 0.000000 -1.000000 246 169 80 1.000000
0.072686 0.081482 0.136634 0.000000 -1.000000 0.000000 244 156 51 1.000000
0.197144 -0.326476 0.249792 0.000000 1.000000 0.000000 248 162 59 1.000000
0.145016 -0.313282 0.302392 0.000000 0.000000 1.000000 241 156 49 1.000000
0.522056 0.349001 -0.065694 -1.000000 0.000000 0.000000 22 22 22 1.000000
0.156649 -0.294829 0.048791 0.000000 1.000000 0.000000 226 226 226 1.000000
0.343049 0.373476 0.136088 0.000000 -1.000000 0.000000 227 127 19 1.000000
0.190894 0.081482 0.065863 0.000000 -1.000000 0.000000 207 102 21 1.000000
-0.659970 -0.292549 -0.244231 -1.000000 0.000000 0.000000 241 149 25 1.000000
-0.596184 0.399989 0.287619 0.000000 -1.000000 0.000000 235 152 40 1.000000
0.440317 0.020531 -0.309948 0.000000 0.000000 1.000000 238 162 62 1.000000
0.141053 -0.008432 -0.284501 0.000000 0.000000 1.000000 232 132 7 1.000000
-0.445599 -0.021194 -0.284501 0.000000 0.000000 1.000000 226 126 22 1.000000
-0.522192 0.373476 -0.084527 0.000000 1.000000 0.000000 220 122 21 1.000000
-0.124009 -0.233844 -0.309948 0.000000 0.000000 1.000000 227 125 25 1.000000
-0.142743 -0.128609 -0.284501 0.000000 0.000000 1.000000 224 137 32 1.000000
-0.659970 -0.114708 -0.175953 1.000000 0.000000 0.000000 236 150 58 1.000000
0.409802 -0.223743 0.302392 0.000000 0.000000 1.000000 237 179 59 1.000000
0.619790 0.373476 0.334864 0.000000 -1.000000 0.000000 215 118 14 1.000000
-0.481793 0.399989 -0.300129 0.000000 -1.000000 0.000000 236 155 51 1.000000
0.588555 0.373476 0.400308 0.000000 -1.000000 0.000000 202 111 4 1.000000
0.021247 0.399989 -0.357916 0.000000 1.000000 0.000000 221 122 25 1.000000
-0.277083 -0.086992 -0.309948 0.000000 0.000000 1.000000 215 115 16 1.000000
0.522056 -0.177432 0.256761 -1.000000 0.000000 0.000000 240 171 52 1.000000
-0.768866 0.399989 0.357655 0.000000 1.000000 0.000000 237 147 43 1.000000
-0.710115 0.223930 0.058405 0.000000 0.000000 1.000000 22 22 22 1.000000
0.144396 -0.154872 0.082186 0.000000 -1.000000 0.000000 255 255 255 1.000000
0.539245 0.144455 -0.308313 0.000000 -1.000000 0.000000 222 119 18 1.000000
-0.590448 0.118661 -0.309948 0.000000 0.000000 1.000000 236 130 42 1.000000
0.070928 -0.014914 0.147635 0.000000 1.000000 0.000000 226 226 226 1.000000
0.362735 0.056035 0.037628 0.000000 -1.000000 0.000000 219 133 30 1.000000
-0.071764 -0.201833 -0.284501 0.000000 0.000000 -1.000000 237 132 31 1.000000
0.523269 0.335306 -0.113876 0.000000 1.000000 0.000000 22 22 22 1.000000
0.025844 -0.069332 -0.083658 1.000000 0.000000 0.000000 218 115 27 1.000000
0.235333 0.399989 0.218201 0.000000 1.000000 0.000000 230 146 41 1.000000
0.598023 0.399989 -0.282469 0.000000 1.000000 0.000000 206 106 19 1.000000
0.343611 -0.351923 -0.228579 0.000000 1.000000 0.000000 236 150 44 1.000000
0.156266 0.134804 -0.309948 0.000000 0.000000 -1.000000 248 142 35 1.000000
0.484032 -0.326476 0.157488 0.000000 1.000000 0.000000 249 168 60 1.000000
-0.151973 0.399989 -0.062626 0.000000 -1.000000 0.000000 237 158 58 1.000000
0.032205 -0.249388 -0.036464 -1.000000 0.000000 0.000000 238 149 48 1.000000
0.160381 0.373476 0.285897 0.000000 -1.000000 0.000000 220 138 38 1.000000
0.419266 0.399989 0.339192 0.000000 1.000000 0.000000 217 129 20 1.000000
-0.348841 -0.355383 0.020235 0.000000 0.000000 1.000000 22 22 22 1.000000
-0.685417 -0.001824 0.276017 1.000000 0.000000 0.000000 225 138 31 1.000000
0.129717 -0.014914 0.140747 0.000000 -1.000000 0.000000 255 255 255 1.000000
-0.659970 0.051998 0.178088 1.000000 0.000000 0.000000 238 130 38 1.000000
-0.612281 0.399989 0.403472 0.000000 -1.000000 0.000000 232 161 46 1.000000
0.462817 -0.294829 0.032172 0.000000 1.000000 0.000000 226 226 226 1.000000
0.558874 0.373476 -0.269217 0.000000 -1.000000 0.000000 232 147 36 1.000000
0.483114 -0.282849 0.327839 0.000000 0.000000 -1.000000 244 152 54 1.000000
-0.474408 -0.377369 0.035698 0.000000 -1.000000 0.000000 22 22 22 1.000000
0.333353 0.373476 -0.207093 0.000000 1.000000 0.000000 206 109 20 1.000000
0.065112 0.399989 0.289528 0.000000 1.000000 0.000000 247 159 52 1.000000
0.496609 -0.125459 -0.243282 1.000000 0.000000 0.000000 237 146 38 1.000000
0.355424 0.373476 -0.017726 0.000000 1.000000 0.000000 240 173 77 1.000000
-0.035847 0.373476 0.321288 0.000000 -1.000000 0.000000 236 138 33 1.000000
0.407113 -0.351923 -0.261991 0.000000 -1.000000 0.000000 226 121 19 1.000000
0.105782 -0.014914 -0.146535 0.000000 -1.000000 0.000000 255 255 255 1.000000
0.221409 -0.351923 -0.158238 0.000000 1.000000 0.000000 229 128 36 1.000000
0.323567 0.399989 -0.228118 0.000000 -1.000000 0.000000 236 138 39 1.000000
0.287413 0.081482 0.029901 0.000000 -1.000000 0.000000 236 143 38 1.000000
0.522056 -0.563478 -0.176032 -1.000000 0.000000 0.000000 22 22 22 1.000000
0.221564 -0.014914 0.114218 0.000000 1.000000 0.000000 226 226 226 1.000000
-0.685417 -0.109445 -0.131173 1.000000 0.000000 0.000000 231 152 33 1.000000
0.094345 0.399989 0.398213 0.000000 -1.000000 0.000000 248 155 54 1.000000
0.269360 -0.280249 0.327839 0.000000 0.000000 -1.000000 235 145 45 1.000000
0.329468 0.044030 -0.309948 0.000000 0.000000 -1.000000 252 180 71 1.000000
0.187258 0.056035 0.113574 0.000000 -1.000000 0.000000 200 116 17 1.000000
-0.060308 0.399989 -0.333805 0.000000 1.000000 0.000000 212 134 24 1.000000
0.340981 -0.154872 0.226938 0.000000 -1.000000 0.000000 255 255 255 1.000000
0.000397 -0.312050 0.025732 -1.000000 0.000000 0.000000 232 138 39 1.000000
0.114997 -0.351923 -0.025588 0.000000 -1.000000 0.000000 231 169 52 1.000000
0.496609 -0.072409 0.218048 -1.000000 0.000000 0.000000 232 134 28 1.000000
-0.230984 -0.377369 0.022727 0.000000 1.000000 0.000000 22 22 22 1.000000
0.000397 -0.250769 -0.135276 -1.000000 0.000000 0.000000 223 122 21 1.000000
-0.205212 0.373476 0.264803 0.000000 1.000000 0.000000 243 154 45 1.000000
0.104863 -0.135632 -0.309948 0.000000 0.000000 -1.000000 216 139 39 1.000000
-0.159690 0.399989 -0.135552 0.000000 -1.000000 0.000000 208 114 14 1.000000
-0.499885 -0.286016 -0.309948 0.000000 0.000000 1.000000 217 119 33 1.000000
0.336390 0.081482 -0.054928 0.000000 1.000000 0.000000 253 155 52 1.000000
0.498142 -0.340093 -0.309948 0.000000 0.000000 1.000000 241 162 48 1.000000
0.321083 -0.191880 -0.284501 0.000000 0.000000 1.000000 232 130 43 1.000000
0.025844 -0.150711 -0.185974 1.000000 0.000000 0.000000 224 133 36 1.000000
-0.601485 0.373476 0.185092 0.000000 1.000000 0.000000 222 134 20 1.000000
-0.659970 0.008662 -0.056722 1.000000 0.000000 0.000000 219 143 58 1.000000
0.234903 0.373476 0.153473 0.000000 1.000000 0.000000 232 143 50 1.000000
0.110574 0.001136 0.289279 0.000000 0.000000 -1.000000 238 147 46 1.000000
0.198607 -0.002281 0.302002 0.000000 0.000000 1.000000 229 136 44 1.000000
0.242816 -0.326476 0.122343 0.000000 -1.000000 0.000000 193 106 19 1.000000
0.424953 -0.278688 -0.309948 0.000000 0.000000 1.000000 235 163 60 1.000000
-0.585694 -0.377369 0.025882 0.000000 -1.000000 0.000000 22 22 22 1.000000
0.006760 -0.007112 0.323990 -1.000000 0.000000 0.000000 224 161 46 1.000000
0.152798 -0.135522 0.327839 0.000000 0.000000 1.000000 229 151 35 1.000000
-0.685417 -0.088670 -0.024236 -1.000000 0.000000 0.000000 247 147 39 1.000000
0.435720 -0.326476 -0.027160 0.000000 1.000000 0.000000 215 112 5 1.000000
-0.408517 0.144215 -0.309948 0.000000 0.000000 1.000000 243 154 47 1.000000
0.291809 -0.326476 -0.203276 0.000000 -1.000000 0.000000 230 121 18 1.000000
-0.678577 -0.351757 -0.308429 0.000000 1.000000 0.000000 247 139 31 1.000000
-0.481525 0.399989 -0.248746 0.000000 -1.000000 0.000000 249 153 56 1.000000
0.450205 -0.265106 -0.155650 0.000000 0.000000 -1.000000 240 141 42 1.000000
0.199086 0.399989 -0.071955 0.000000 -1.000000 0.000000 210 114 18 1.000000
0.447430 0.056035 -0.211480 0.000000 1.000000 0.000000 233 142 34 1.000000
-0.080472 0.399989 0.208106 0.000000 1.000000 0.000000 253 165 49 1.000000
0.404950 0.373476 -0.172573 0.000000 1.000000 0.000000 248 164 53 1.000000
0.127425 -0.326476 -0.065647 0.000000 1.000000 0.000000 247 151 42 1.000000
-0.130521 0.035174 -0.284501 0.000000 0.000000 1.000000 240 164 54 1.000000
0.309581 0.378958 0.440107 0.000000 0.000000 -1.000000 238 160 48 1.000000
0.290051 -0.000768 0.327449 0.000000 0.000000 -1.000000 229 138 35 1.000000
0.174927 -0.154872 0.037184 0.000000 1.000000 0.000000 226 226 226 1.000000
-0.272259 0.008706 -0.284501 0.000000 0.000000 -1.000000 238 149 51 1.000000
-0.685417 -0.048313 0.164939 -1.000000 0.000000 0.000000 225 131 30 1.000000
0.028945 0.056035 -0.010200 0.000000 1.000000 0.000000 201 118 23 1.000000
-0.178544 -0.377369 0.031946 0.000000 1.000000 0.000000 22 22 22 1.000000
0.284699 0.373476 -0.000476 0.000000 1.000000 0.000000 233 145 55 1.000000
0.416979 -0.326476 0.224437 0.000000 -1.000000 0.000000 226 133 24 1.000000
0.588887 0.399989 -0.099059 0.000000 -1.000000 0.000000 225 127 34 1.000000
0.045080 -0.101413 0.258270 -1.000000 0.000000 0.000000 225 131 29 1.000000
-0.057988 0.399989 -0.159823 0.000000 1.000000 0.000000 230 123 35 1.000000
-0.548873 0.399989 -0.255121 0.000000 1.000000 0.000000 241 150 54 1.000000
-0.659970 -0.059282 0.023547 -1.000000 0.000000 0.000000 238 134 39 1.000000
-0.341021 0.373476 -0.105009 0.000000 1.000000 0.000000 248 154 39 1.000000
-0.502293 -0.199558 -0.309948 0.000000 0.000000 1.000000 229 142 46 1.000000
0.221638 0.399989 0.092205 0.000000 -1.000000 0.000000 253 175 72 1.000000
0.335348 0.373476 0.331536 0.000000 1.000000 0.000000 235 139 31 1.000000
0.060960 0.000347 -0.284501 0.000000 0.000000 -1.000000 252 174 66 1.000000
0.032205 -0.170335 0.249595 1.000000 0.000000 0.000000 238 143 44 1.000000
0.112024 -0.209681 0.302392 0.000000 0.000000 -1.000000 234 155 48 1.000000
0.317303 -0.326476 0.293160 0.000000 1.000000 0.000000 214 112 27 1.000000
0.108286 -0.294829 0.232426 0.000000 1.000000 0.000000 226 226 226 1.000000
0.000397 -0.245740 -0.075120 1.000000 0.000000 0.000000 246 167 55 1.000000
0.649619 0.399012 -0.203968 -0.742972 -0.588951 0.318009 208 111 13 1.000000
0.483810 -0.279202 0.257727 1.000000 0.000000 0.000000 252 158 42 1.000000
0.292128 0.041286 -0.284501 0.000000 0.000000 1.000000 220 125 38 1.000000
0.302222 -0.266295 0.289668 0.000000 0.000000 -1.000000 236 151 38 1.000000
0.267747 -0.014914 0.086476 0.000000 1.000000 0.000000 226 226 226 1.000000
-0.133521 0.399989 0.149661 0.000000 1.000000 0.000000 234 143 43 1.000000
0.062560 -0.264277 -0.284501 0.000000 0.000000 -1.000000 237 149 44 1.000000
0.045080 -0.129935 0.100331 1.000000 0.000000 0.000000 224 125 21 1.000000
0.000397 0.040626 -0.090619 1.000000 0.000000 0.000000 202 102 2 1.000000
-0.101932 0.373476 -0.075413 0.000000 -1.000000 0.000000 238 136 43 1.000000
-0.165974 0.373476 0.064042 0.000000 1.000000 0.000000 228 138 32 1.000000
0.468977 0.373476 0.415445 0.000000 -1.000000 0.000000 245 174 71 1.000000
0.190022 0.399989 0.399632 0.000000 -1.000000 0.000000 234 148 52 1.000000
0.367828 0.144455 -0.289175 0.000000 1.000000 0.000000 196 119 15 1.000000
0.324221 0.399989 0.026210 0.000000 1.000000 0.000000 244 159 59 1.000000
-0.189575 0.068766 -0.284501 0.000000 0.000000 -1.000000 227 134 19 1.000000
-0.583697 0.399989 0.434979 0.000000 1.000000 0.000000 244 141 25 1.000000
0.048784 0.399989 -0.044874 0.000000 -1.000000 0.000000 225 134 35 1.000000
0.422267 -0.351923 0.024667 0.000000 1.000000 0.000000 206 126 23 1.000000
0.395925 0.056035 -0.124275 0.000000 1.000000 0.000000 249 157 65 1.000000
-0.068959 0.092073 -0.309948 0.000000 0.000000 -1.000000 241 155 36 1.000000
-0.447441 -0.170945 -0.284501 0.000000 0.000000 -1.000000 249 160 54 1.000000
0.522056 -0.023193 -0.085980 1.000000 0.000000 0.000000 242 137 33 1.000000
0.463900 -0.351923 -0.227408 0.000000 1.000000 0.000000 217 116 15 1.000000
0.190916 -0.014914 0.013141 0.000000 1.000000 0.000000 226 226 226 1.000000
0.522056 0.046843 -0.193953 1.000000 0.000000 0.000000 245 157 61 1.000000
-0.583686 -0.131855 -0.309948 0.000000 0.000000 -1.000000 224 140 36 1.000000
-0.128932 0.373476 0.287045 0.000000 -1.000000 0.000000 247 148 45 1.000000
0.339865 -0.351923 -0.175864 0.000000 -1.000000 0.000000 249 157 66 1.000000
0.496609 -0.011830 0.137824 1.000000 0.000000 0.000000 241 161 55 1.000000
-0.711488 -0.549988 -0.119964 -1.000000 0.000000 0.000000 22 22 22 1.000000
0.554489 0.018317 -0.284900 1.000000 0.000000 0.000000 218 131 47 1.000000
0.200775 -0.014914 -0.068952 0.000000 -1.000000 0.000000 255 255 255 1.000000
0.430195 0.081482 -0.075807 0.000000 -1.000000 0.000000 236 135 32 1.000000
0.526027 0.373476 0.019654 0.000000 -1.000000 0.000000 236 169 60 1.000000
0.223319 -0.295744 -0.168374 0.000000 0.000000 1.000000 201 106 2 1.000000
0.522056 -0.027395 0.042774 -1.000000 0.000000 0.000000 248 157 68 1.000000
0.025844 0.020651 -0.060443 1.000000 0.000000 0.000000 219 126 16 1.000000
0.369482 0.056035 0.252925 0.000000 -1.000000 0.000000 238 165 59 1.000000
0.247830 -0.014914 0.042790 0.000000 -1.000000 0.000000 255 255 255 1.000000
-0.685417 -0.103189 0.206729 -1.000000 0.000000 0.000000 244 142 43 1.000000
0.527553 0.373476 0.153412 0.000000 -1.000000 0.000000 22 22 22 1.000000
-0.711488 -0.543975 -0.021700 1.000000 0.000000 0.000000 22 22 22 1.000000
-0.382118 0.373476 -0.355657 0.000000 -1.000000 0.000000 230 149 53 1.000000
-0.564411 0.373476 -0.033226 0.000000 -1.000000 0.000000 251 172 52 1.000000
0.286188 0.056035 0.052083 0.000000 -1.000000 0.000000 234 156 51 1.000000
0.151500 0.399989 0.099444 0.000000 1.000000 0.000000 241 147 45 1.000000
-0.352741 0.399989 0.398564 0.000000 1.000000 0.000000 243 161 64 1.000000
-0.690794 0.399989 0.040719 0.000000 -1.000000 0.000000 245 145 48 1.000000
-0.685417 -0.039762 -0.094558 1.000000 0.000000 0.000000 255 160 44 1.000000
0.517709 -0.002984 -0.309948 0.000000 0.000000 1.000000 219 129 21 1.000000
0.486479 0.373476 0.028646 0.000000 -1.000000 0.000000 242 170 63 1.000000
-0.545195 0.399989 0.370305 0.000000 -1.000000 0.000000 241 141 33 1.000000
-0.300523 0.373476 -0.011156 0.000000 1.000000 0.000000 238 155 37 1.000000
0.248392 -0.255762 -0.284501 0.000000 0.000000 1.000000 192 91 6 1.000000
-0.555394 -0.377369 0.054269 0.000000 1.000000 0.000000 22 22 22 1.000000
0.496609 0.022724 -0.209780 1.000000 0.000000 0.000000 224 139 29 1.000000
-0.685102 0.081482 -0.078390 0.000000 -1.000000 0.000000 232 156 43 1.000000
-0.557944 0.399989 -0.108352 0.000000 1.000000 0.000000 221 126 20 1.000000
-0.348440 0.399989 -0.333475 0.000000 1.000000 0.000000 239 171 66 1.000000
-0.808262 0.373476 -0.029850 0.000000 -1.000000 0.000000 252 183 78 1.000000
-0.414658 0.077798 -0.309948 0.000000 0.000000 -1.000000 249 144 44 1.000000
0.101124 0.373476 -0.216943 0.000000 -1.000000 0.000000 212 128 13 1.000000
0.408228 0.373476 -0.284790 0.000000 -1.000000 0.000000 22 22 22 1.000000
-0.562829 0.373476 0.258340 0.000000 -1.000000 0.000000 246 163 50 1.000000
