ply
format ascii 1.0
element vertex 1288
property float x
property float y
property float z
property uchar red
property uchar green
property uchar blue
end_header
-0.206609 0.287372 0.131072 0 0 255
0.076609 0.441994 0.111134 204 51 127
0.001737 0.243363 -0.356310 0 255 0
0.034681 0.593142 0.029258 153 0 76
0.096632 0.377521 0.055850 0 0 255
-0.008886 0.613740 0.127136 153 0 76
0.054291 -0.890186 -0.352647 127 0 127
0.016314 0.508569 0.342379 0 0 255
0.049259 -0.793634 -0.153524 127 0 127
-0.026177 -0.752415 -0.399947 0 255 0
0.055218 -0.818177 -0.450630 127 0 127
0.020446 0.247521 -0.395064 0 255 0
-0.057209 0.626052 0.122304 255 0 0
0.005738 0.322702 -0.340466 153 0 76
0.032491 -0.890186 -0.210426 127 0 127
-0.198957 -0.827577 -0.345273 127 0 127
-0.141900 0.420150 0.456056 0 0 255
-0.149290 0.412230 0.098075 0 0 255
-0.092851 -0.793634 -0.341177 127 0 127
-0.054537 0.343792 0.258915 204 51 127
-0.216703 -0.793634 -0.232190 127 0 127
0.020889 -0.890186 -0.109364 127 0 127
-0.064867 0.317518 0.147179 204 51 127
-0.005452 0.515348 -0.052506 153 0 76
0.256067 0.272676 0.216473 0 0 255
0.026695 0.648622 0.118522 255 0 0
-0.004458 -0.074728 -0.366729 0 255 0
-0.010610 0.254509 -0.356335 0 255 0
-0.166729 0.434060 0.402336 0 0 255
-0.069214 0.227963 0.030765 0 0 255
0.071339 0.494324 0.343883 0 0 255
0.184329 0.417321 0.183469 0 0 255
-0.023363 -0.683710 -0.370632 0 255 0
-0.008207 0.359393 -0.281190 153 0 76
-0.069072 0.563194 0.084795 153 0 76
-0.019337 -0.813566 -0.456950 127 0 127
0.077617 0.200806 0.044894 0 0 255
0.165570 0.253600 0.092126 0 0 255
-0.014201 -0.793634 -0.455408 127 0 127
-0.065773 0.167191 0.039539 0 0 255
0.053221 -0.793634 -0.443428 127 0 127
0.018293 0.480754 0.416626 0 0 255
0.010332 0.395069 0.024866 0 0 255
-0.058935 -0.844960 -0.018283 127 0 127
-0.008518 -0.737599 -0.410403 0 255 0
-0.020497 -0.579581 -0.380766 0 255 0
-0.135849 -0.858609 -0.413924 127 0 127
0.000359 0.562266 0.235569 0 0 255
0.145804 0.435574 0.421288 0 0 255
-0.025918 0.495405 0.060071 153 0 76
0.118975 -0.890186 -0.293875 127 0 127
0.002030 0.557304 0.155249 153 0 76
0.221681 0.296101 0.154802 0 0 255
0.024349 -0.840167 -0.014873 127 0 127
0.132820 -0.890186 -0.273366 127 0 127
0.043804 0.500492 0.351940 0 0 255
-0.094687 0.291894 0.046947 0 0 255
-0.000690 0.197526 0.023501 0 0 255
-0.038061 0.545848 0.034495 153 0 76
0.175246 0.432066 0.182841 0 0 255
-0.103106 0.228737 0.042366 0 0 255
0.011139 0.580461 0.196582 0 0 255
-0.095893 0.412834 0.119054 204 51 127
0.028873 -0.890186 -0.250618 127 0 127
-0.028483 0.189309 0.025878 0 0 255
0.080010 -0.890186 -0.029979 127 0 127
0.140596 0.473037 0.141890 0 0 255
-0.011066 0.620250 0.151252 255 0 0
-0.161281 0.429475 0.426799 0 0 255
0.204196 0.398710 0.342915 0 0 255
-0.087638 0.588547 0.048204 0 0 255
-0.017233 -0.793634 -0.076517 127 0 127
0.150976 -0.823660 -0.074364 127 0 127
0.241266 0.352122 0.301356 0 0 255
0.050925 0.150743 0.039518 0 0 255
-0.025970 0.603911 0.047782 153 0 76
0.145104 -0.890186 -0.369150 127 0 127
-0.073175 0.430399 0.099197 204 51 127
0.090480 0.510036 0.285211 0 0 255
-0.094112 -0.793634 -0.357530 127 0 127
-0.261338 0.301622 0.213499 0 0 255
0.127731 -0.890186 -0.199080 127 0 127
-0.207153 -0.833006 -0.144532 127 0 127
-0.057579 0.485531 0.381533 0 0 255
0.105461 0.528830 0.180454 0 0 255
0.141550 -0.808931 -0.067132 127 0 127
-0.061303 -0.812587 -0.451425 127 0 127
0.025252 -0.789642 -0.146533 153 76 0
0.143422 -0.793634 -0.129773 127 0 127
0.089206 -0.890186 -0.180484 127 0 127
-0.092613 0.459762 0.052747 0 0 255
0.196083 0.186767 0.095050 0 0 255
0.098314 0.353258 0.055386 0 0 255
0.215691 -0.806471 -0.264512 127 0 127
-0.192374 0.225911 0.091898 0 0 255
-0.211839 -0.807771 -0.314174 127 0 127
-0.186982 0.432802 0.300614 0 0 255
-0.029114 -0.711990 -0.395309 0 255 0
-0.038637 0.238383 0.033538 0 0 255
0.270058 0.271558 0.221400 0 0 255
-0.039385 0.602955 0.118097 153 0 76
0.060525 0.438782 0.475109 0 0 255
0.145950 -0.853025 -0.399512 127 0 127
0.026654 0.619243 0.019181 255 0 0
0.097023 0.359443 0.148957 204 51 127
0.050108 0.475410 0.252127 204 51 127
0.117820 0.510561 0.210260 0 0 255
0.058030 -0.890186 -0.143729 127 0 127
0.207891 -0.890186 -0.248869 127 0 127
-0.153476 0.468760 0.321180 0 0 255
0.134489 -0.793634 -0.346691 127 0 127
-0.015561 0.628491 0.143210 0 0 255
0.092338 -0.793634 -0.293934 127 0 127
0.007077 0.302137 0.225735 204 51 127
-0.113617 0.424533 0.184503 204 51 127
0.161441 0.418647 0.143264 0 0 255
0.269860 0.315421 0.282628 0 0 255
0.070979 0.632738 0.073535 0 0 255
0.127777 -0.864088 -0.413457 127 0 127
-0.119923 -0.890186 -0.302968 127 0 127
0.136236 -0.851174 -0.406966 127 0 127
0.016543 0.616759 0.065258 153 0 76
-0.037400 0.318171 -0.382074 0 255 0
0.177727 0.434188 0.344088 0 0 255
0.192336 0.224291 0.111868 0 0 255
-0.026821 -0.803748 -0.138426 153 76 0
0.196771 -0.806969 -0.140423 127 0 127
-0.048460 0.204639 0.027903 0 0 255
0.012860 -0.796549 -0.152827 127 0 127
-0.058331 0.310813 0.155505 204 51 127
0.049146 0.611276 0.087698 153 0 76
-0.214894 0.204673 0.107927 0 0 255
0.093616 -0.793634 -0.170900 127 0 127
0.102567 -0.793634 -0.048186 127 0 127
0.135934 0.217620 0.070164 0 0 255
-0.022599 0.547372 -0.012281 255 0 0
-0.052067 -0.890186 -0.277479 127 0 127
-0.009689 -0.890186 -0.263718 127 0 127
0.169082 -0.890186 -0.220213 127 0 127
0.003570 -0.277658 -0.397595 0 255 0
-0.003436 -0.890186 -0.169920 127 0 127
-0.020007 -0.517860 -0.378328 0 255 0
0.028984 0.608670 0.119610 153 0 76
0.000431 0.572220 0.129220 153 0 76
0.173945 -0.890186 -0.351554 127 0 127
0.047715 0.531465 0.280751 0 0 255
0.098337 -0.813571 -0.037250 127 0 127
0.134583 0.466921 0.347320 0 0 255
-0.063554 0.472211 0.247681 204 51 127
-0.096120 0.464630 0.174015 204 51 127
0.071041 0.332273 0.225474 204 51 127
0.062602 0.458839 0.453414 0 0 255
-0.128420 -0.890186 -0.379380 127 0 127
-0.091025 0.532075 0.064378 255 0 0
-0.069945 0.548201 0.075062 153 0 76
-0.109018 0.367175 0.179518 204 51 127
-0.176961 -0.890186 -0.222975 127 0 127
-0.222847 0.351111 0.197536 0 0 255
0.098026 -0.890186 -0.118731 127 0 127
0.182657 -0.876912 -0.114036 127 0 127
0.106514 0.373418 0.165511 204 51 127
-0.097524 0.495038 0.067077 0 0 255
0.010835 -0.611894 -0.389242 0 255 0
0.013862 0.556743 0.032071 153 0 76
-0.010464 0.314855 -0.398335 0 255 0
0.149741 0.446511 0.380366 0 0 255
-0.003624 0.100845 -0.366808 0 255 0
0.030226 0.564193 0.226481 0 0 255
0.190688 -0.856111 -0.344281 127 0 127
0.150961 0.195105 0.067350 0 0 255
0.103505 0.515177 0.103490 0 0 255
0.176746 -0.890186 -0.293825 127 0 127
-0.160635 0.475936 0.247524 0 0 255
0.241250 0.352506 0.347015 0 0 255
-0.003215 0.397480 -0.221922 153 0 76
0.000512 0.315091 -0.372203 0 255 0
-0.017796 0.289572 -0.407321 153 76 0
0.027011 -0.793634 -0.266295 127 0 127
-0.199820 0.397930 0.402916 0 0 255
0.076833 0.606514 0.086735 255 0 0
-0.001280 -0.890186 -0.115740 127 0 127
-0.078968 0.598356 0.021089 255 0 0
0.258692 0.320157 0.295821 0 0 255
0.040570 0.246182 0.027467 0 0 255
-0.144994 0.201978 0.059164 0 0 255
0.084685 -0.890186 -0.260722 127 0 127
-0.201634 0.415301 0.298212 0 0 255
-0.175705 0.390027 0.132383 0 0 255
-0.022811 0.525321 0.034380 153 0 76
-0.083773 0.399666 0.103529 204 51 127
-0.053158 0.317568 0.229454 204 51 127
-0.271229 0.294463 0.252541 0 0 255
0.218254 -0.890186 -0.230837 127 0 127
0.098932 0.481978 0.364858 0 0 255
-0.029989 0.608096 0.100110 153 0 76
-0.000255 0.627894 0.082230 153 0 76
0.070721 0.181761 0.033329 0 0 255
-0.113097 -0.793634 -0.357813 127 0 127
-0.009412 -0.541805 -0.398770 0 255 0
0.061857 -0.802942 -0.022140 127 0 127
0.041484 0.630762 0.036740 0 0 255
-0.094804 0.465479 0.416554 0 0 255
0.078054 0.378711 0.040482 0 0 255
0.070284 -0.890186 -0.439959 127 0 127
-0.193115 0.416588 0.347469 0 0 255
0.063644 -0.793634 -0.375535 127 0 127
-0.093334 -0.878323 -0.359897 127 0 127
-0.084636 0.495816 0.336582 0 0 255
-0.060105 0.571794 0.126230 153 0 76
0.012414 0.545460 0.164024 153 0 76
-0.076905 0.321994 0.166329 204 51 127
-0.003298 -0.580233 -0.366851 0 255 0
-0.181926 0.420083 0.415695 0 0 255
-0.105189 -0.890186 -0.274878 127 0 127
0.157876 -0.848600 -0.081741 127 0 127
-0.004052 -0.784501 -0.143622 76 0 153
0.102649 0.460545 0.392886 0 0 255
-0.038607 -0.890186 -0.063294 127 0 127
0.149362 0.438744 0.135347 0 0 255
0.007591 -0.361882 -0.394476 0 255 0
0.089522 0.479095 0.063701 0 0 255
0.223951 0.375049 0.335918 0 0 255
-0.027936 0.340993 0.089702 204 51 127
-0.035643 -0.803646 -0.454804 127 0 127
-0.006403 -0.890186 -0.359673 127 0 127
-0.005277 -0.890186 -0.293824 127 0 127
0.007908 0.286936 -0.370034 153 76 0
-0.193777 0.391428 0.156722 0 0 255
0.117156 0.485593 0.323935 0 0 255
0.232370 0.357919 0.233694 0 0 255
-0.056726 0.540342 0.013726 255 0 0
-0.020310 0.482976 0.413484 0 0 255
0.061498 0.480604 0.401879 0 0 255
-0.227379 -0.839510 -0.241658 127 0 127
0.045514 -0.851215 -0.017659 127 0 127
0.047089 0.648449 0.102637 0 0 255
0.024327 0.256745 0.032145 0 0 255
0.215053 -0.838453 -0.200668 127 0 127
0.068646 -0.890186 -0.166653 127 0 127
-0.130859 0.508604 0.219659 0 0 255
-0.111059 0.394222 0.148621 204 51 127
-0.237796 0.368491 0.361028 0 0 255
0.096234 -0.890186 -0.403986 127 0 127
0.030436 -0.793634 -0.218882 127 0 127
0.047110 0.577507 0.074172 153 0 76
0.004618 -0.807145 -0.136686 127 0 127
-0.031197 -0.890186 -0.085992 127 0 127
-0.020427 0.004130 -0.380235 0 255 0
0.105801 0.435500 0.070695 0 0 255
-0.104909 -0.793634 -0.190168 127 0 127
0.073849 0.488678 0.151442 204 51 127
-0.050194 0.304100 0.193522 204 51 127
0.153031 0.424590 0.440866 0 0 255
-0.051073 0.425089 0.082243 204 51 127
0.146644 0.456189 0.331690 0 0 255
0.052186 0.506751 0.346592 0 0 255
-0.042329 -0.793634 -0.219148 127 0 127
-0.180988 0.427960 0.182972 0 0 255
-0.043377 0.572221 0.202912 0 0 255
0.012950 0.530210 0.082491 153 0 76
-0.226940 0.382612 0.350855 0 0 255
0.039020 0.301182 0.192650 204 51 127
-0.154787 0.481048 0.187501 0 0 255
-0.258122 0.319777 0.252452 0 0 255
-0.003389 0.571149 0.218187 0 0 255
-0.012215 0.542510 0.022563 153 0 76
-0.086849 0.485586 0.357646 0 0 255
-0.187076 -0.890186 -0.284289 127 0 127
0.166110 0.318970 0.105355 0 0 255
-0.167896 -0.793634 -0.380203 127 0 127
-0.000032 -0.793634 -0.272157 127 0 127
0.004614 -0.879342 -0.012274 127 0 127
-0.125435 0.470347 0.371187 0 0 255
0.005062 -0.796549 -0.123067 76 0 153
0.128381 -0.890186 -0.387864 127 0 127
0.023639 0.278247 0.025185 0 0 255
-0.158948 -0.890186 -0.327517 127 0 127
-0.000594 0.339659 -0.309443 153 0 76
-0.005996 -0.243961 -0.399448 0 255 0
0.022421 0.305166 0.133356 204 51 127
-0.075659 0.643990 0.059859 255 0 0
0.195629 0.367247 0.155366 0 0 255
-0.047698 0.512645 0.328073 0 0 255
-0.005169 0.661006 0.082842 255 0 0
0.072497 0.448363 0.043604 0 0 255
-0.158860 -0.856899 -0.396266 127 0 127
-0.024508 0.263679 -0.401987 0 255 0
-0.128261 0.212506 0.050642 0 0 255
0.000895 -0.793634 -0.416897 127 0 127
0.017377 0.375389 0.023268 0 0 255
0.133998 0.444697 0.416201 0 0 255
-0.031461 -0.878844 -0.334279 127 0 127
0.010455 -0.384527 -0.390158 0 255 0
0.213674 0.273671 0.132982 0 0 255
-0.008073 0.437686 -0.189620 153 0 76
0.028546 0.448587 0.463144 0 0 255
-0.021188 0.320171 0.252074 204 51 127
0.001501 0.509753 -0.071539 153 0 76
-0.027285 0.461627 0.459123 0 0 255
-0.155528 0.202053 0.065518 0 0 255
-0.013696 0.572170 0.119627 153 0 76
0.031194 0.566429 0.110395 153 0 76
0.024758 -0.890186 -0.128473 127 0 127
0.075924 0.624366 0.051184 255 0 0
0.057942 0.522536 0.072295 153 0 76
-0.072602 0.493119 0.124521 204 51 127
-0.027601 0.444930 0.473194 0 0 255
-0.235404 0.352909 0.235320 0 0 255
-0.114094 0.200548 0.045561 0 0 255
-0.199317 -0.793634 -0.220757 127 0 127
-0.066016 0.458650 0.455263 0 0 255
-0.141937 0.223995 0.068909 0 0 255
0.021825 0.269780 -0.374644 0 255 0
0.116249 0.422534 0.467242 0 0 255
-0.023387 0.550816 0.261616 0 0 255
-0.051525 0.562711 0.093339 153 0 76
-0.234425 0.269751 0.163065 0 0 255
0.041694 -0.890186 -0.421108 127 0 127
-0.007156 0.398346 0.292859 204 51 127
-0.166309 0.381382 0.106889 0 0 255
-0.009266 0.419758 0.020846 0 0 255
-0.028876 0.386832 0.023437 0 0 255
0.113023 0.195082 0.057287 0 0 255
-0.089613 -0.823617 -0.439979 127 0 127
0.000476 -0.071789 -0.398877 0 255 0
0.013166 -0.781209 -0.404453 0 255 0
-0.087383 -0.793634 -0.253960 127 0 127
0.062338 0.164894 0.040225 0 0 255
-0.025912 -0.793634 -0.422945 127 0 127
-0.006214 0.444207 0.067669 204 51 127
-0.003338 0.142828 0.033711 0 0 255
0.059157 0.612293 0.123502 0 0 255
0.072122 0.526799 0.045670 0 0 255
0.116279 0.249377 0.060027 0 0 255
-0.104464 0.510314 0.082916 0 0 255
0.116074 0.510103 0.241574 0 0 255
0.177699 0.304173 0.113492 0 0 255
-0.037424 0.311104 0.025338 0 0 255
0.005587 -0.648081 -0.370217 0 255 0
-0.065498 -0.793634 -0.138419 127 0 127
0.134229 -0.793634 -0.381115 127 0 127
0.150850 0.459748 0.168085 0 0 255
0.083531 0.522195 0.264205 0 0 255
-0.032266 -0.890186 -0.319104 127 0 127
0.181282 0.411816 0.425428 0 0 255
0.131711 0.473930 0.123429 0 0 255
-0.079972 -0.816242 -0.026048 127 0 127
-0.088349 0.599938 0.080559 0 0 255
-0.186424 -0.877072 -0.107633 127 0 127
0.008485 0.615360 0.013264 255 0 0
0.224595 0.215438 0.140810 0 0 255
-0.031417 -0.750174 -0.377979 0 255 0
0.053445 0.518897 0.315886 0 0 255
-0.186192 -0.887525 -0.362689 127 0 127
0.269480 0.307019 0.259837 0 0 255
-0.219808 -0.878592 -0.294936 127 0 127
0.104517 0.525765 0.124655 0 0 255
0.247563 0.305620 0.229260 0 0 255
-0.049605 -0.793634 -0.165441 127 0 127
0.241606 0.227452 0.149557 0 0 255
-0.169105 0.273686 0.091141 0 0 255
0.186191 -0.793634 -0.216695 127 0 127
-0.029081 0.530626 0.002563 255 0 0
0.053678 0.196592 0.037941 0 0 255
-0.014457 0.123945 -0.396017 0 255 0
0.044812 0.338397 0.257759 204 51 127
0.013935 0.528098 0.302647 0 0 255
-0.243627 0.319513 0.192947 0 0 255
-0.081096 0.548404 0.211960 0 0 255
-0.149391 -0.793634 -0.382205 127 0 127
-0.244131 0.225569 0.140130 0 0 255
0.033979 0.629661 0.085065 153 0 76
-0.076418 -0.812122 -0.445444 127 0 127
-0.060277 -0.878770 -0.451560 127 0 127
-0.007711 0.544972 0.100982 153 0 76
0.213737 -0.805158 -0.190672 127 0 127
-0.245472 0.249691 0.169977 0 0 255
0.090978 0.405640 0.050770 0 0 255
0.051215 0.597737 0.075497 153 0 76
0.147298 0.418852 0.457062 0 0 255
0.154950 0.323117 0.095554 0 0 255
-0.112795 0.524274 0.207469 0 0 255
0.027388 0.552082 0.031083 153 0 76
0.072035 0.216781 0.034475 0 0 255
-0.083344 -0.793634 -0.213113 127 0 127
-0.025851 0.324242 -0.407024 153 76 0
0.032674 -0.890186 -0.270004 127 0 127
-0.016620 0.245274 -0.394021 0 255 0
0.015097 0.441938 0.022178 0 0 255
0.081397 -0.793634 -0.401718 127 0 127
0.185247 0.270578 0.114133 0 0 255
0.061070 0.493219 0.104099 204 51 127
-0.190604 0.207695 0.087176 0 0 255
0.228974 0.368407 0.326946 0 0 255
0.000560 0.360872 -0.338541 153 0 76
-0.026716 0.551656 0.040909 153 0 76
-0.002534 -0.890186 -0.343528 127 0 127
-0.205995 0.356256 0.164128 0 0 255
-0.002122 -0.582001 -0.399375 0 255 0
-0.147297 0.459250 0.123718 0 0 255
-0.009441 0.231482 0.030521 0 0 255
-0.169628 0.427160 0.150456 0 0 255
0.065441 -0.793634 -0.202538 127 0 127
-0.020669 -0.290051 -0.382068 0 255 0
0.097699 -0.890186 -0.252404 127 0 127
-0.122453 -0.793634 -0.053820 127 0 127
0.000456 -0.335761 -0.367495 0 255 0
0.088505 0.488661 0.341894 0 0 255
-0.009291 0.509187 -0.039860 153 0 76
-0.048612 0.498732 0.025930 255 0 0
0.136103 0.285984 0.066841 0 0 255
-0.059803 0.655332 0.091962 255 0 0
-0.002131 0.643529 0.056201 255 0 0
-0.059487 0.609229 0.135834 255 0 0
0.220931 0.237624 0.141926 0 0 255
0.178538 0.412200 0.392843 0 0 255
-0.006022 0.516634 0.342418 0 0 255
0.063156 0.206667 0.031238 0 0 255
-0.030225 -0.793634 -0.063444 127 0 127
-0.030051 0.645709 0.124075 255 0 0
0.104565 -0.793634 -0.261802 127 0 127
0.135816 -0.890186 -0.222919 127 0 127
-0.021768 0.233697 -0.362317 0 255 0
-0.085807 0.240332 0.036683 0 0 255
-0.023946 0.344450 -0.356469 153 0 76
0.133235 0.367249 0.083497 0 0 255
0.026564 0.147012 0.027161 0 0 255
-0.066077 -0.890186 -0.200389 127 0 127
0.088986 -0.890186 -0.357466 127 0 127
-0.087837 -0.890186 -0.252084 127 0 127
-0.039395 -0.793634 -0.283355 127 0 127
-0.067991 0.278262 0.031347 0 0 255
0.194591 0.197135 0.108729 0 0 255
0.070956 -0.793634 -0.441130 127 0 127
-0.028259 -0.793634 -0.106397 153 76 0
0.039304 0.548337 0.250087 0 0 255
0.121481 0.416362 0.081877 0 0 255
-0.208001 0.417666 0.273397 0 0 255
0.155069 0.212212 0.071415 0 0 255
-0.043545 0.309158 0.138245 204 51 127
-0.200621 0.412055 0.392394 0 0 255
-0.105773 0.440302 0.467989 0 0 255
-0.159591 -0.890186 -0.287454 127 0 127
-0.125887 0.280510 0.054948 0 0 255
0.001431 0.401286 -0.258173 153 0 76
0.052806 0.440591 0.273838 204 51 127
-0.019922 0.402087 -0.234410 153 0 76
0.005891 -0.303027 -0.395930 0 255 0
-0.008936 0.209285 -0.398968 0 255 0
-0.113624 0.386025 0.168655 204 51 127
-0.133740 0.449042 0.420154 0 0 255
0.193871 0.380376 0.164709 0 0 255
0.209167 -0.819393 -0.299670 127 0 127
-0.092546 0.315250 0.040477 0 0 255
-0.126971 -0.793634 -0.287247 127 0 127
-0.016573 -0.793634 -0.053102 127 0 127
0.049998 0.559576 0.219937 0 0 255
0.235494 0.305074 0.201203 0 0 255
0.066585 0.152832 0.031528 0 0 255
-0.128114 -0.793634 -0.382749 127 0 127
0.177534 0.290740 0.100966 0 0 255
0.111106 0.471602 0.088542 0 0 255
-0.123607 0.476915 0.332486 0 0 255
-0.016136 0.286186 -0.370907 153 76 0
0.021079 0.624800 0.027653 0 0 255
0.039229 -0.793634 -0.396322 127 0 127
-0.011007 -0.532822 -0.368270 0 255 0
0.175567 0.422701 0.358156 0 0 255
0.019781 0.305615 -0.369709 0 255 0
0.045154 0.554791 0.005171 0 0 255
-0.032813 -0.890186 -0.207434 127 0 127
-0.244235 0.260688 0.157076 0 0 255
0.137189 0.200730 0.069893 0 0 255
-0.067801 0.201569 0.030088 0 0 255
-0.083659 0.585541 0.122205 255 0 0
-0.038185 0.175545 0.027128 0 0 255
0.141778 0.487210 0.208008 0 0 255
0.062642 0.547766 0.083178 153 0 76
0.001691 0.520185 -0.014398 153 0 76
-0.053899 -0.856076 -0.452400 127 0 127
-0.008794 0.196042 0.031908 0 0 255
-0.201581 0.401964 0.377046 0 0 255
0.066528 -0.890186 -0.131469 127 0 127
0.206806 0.396152 0.404325 0 0 255
-0.017111 -0.780888 -0.164117 76 0 153
0.004144 0.276191 -0.409380 0 255 0
-0.160964 0.401231 0.116255 0 0 255
-0.136697 0.471011 0.112474 0 0 255
0.066415 0.142178 0.039526 0 0 255
-0.020263 -0.651370 -0.387392 0 255 0
0.227715 0.327914 0.185656 0 0 255
-0.255563 0.359553 0.310237 0 0 255
-0.002622 0.454060 -0.156680 153 0 76
-0.017931 -0.802198 -0.175870 127 0 127
0.093631 -0.890186 -0.224782 127 0 127
0.120416 -0.793634 -0.076262 127 0 127
-0.134461 -0.890186 -0.249201 127 0 127
-0.225655 -0.865821 -0.215264 127 0 127
0.123214 0.429605 0.082294 0 0 255
0.061508 0.508693 0.149121 204 51 127
-0.090137 0.443174 0.475062 0 0 255
-0.133161 0.186554 0.061363 0 0 255
0.203272 0.238022 0.124934 0 0 255
0.208398 -0.863250 -0.168493 127 0 127
-0.073724 0.431850 0.264411 204 51 127
-0.064643 0.453607 0.262163 204 51 127
-0.188829 0.271165 0.109401 0 0 255
-0.033913 0.299515 -0.383533 153 76 0
0.068501 -0.890186 -0.223851 127 0 127
-0.108749 -0.890186 -0.099112 127 0 127
0.034430 0.553182 0.089091 153 0 76
-0.114911 -0.856358 -0.429500 127 0 127
-0.044791 0.305231 0.149772 204 51 127
0.028656 0.610269 0.075627 153 0 76
0.032424 0.558339 0.043400 153 0 76
0.045787 0.538384 0.051962 153 0 76
-0.081945 0.554721 0.193011 0 0 255
-0.000087 0.591728 0.176818 0 0 255
0.003045 -0.047404 -0.397812 0 255 0
-0.000109 0.501154 -0.057473 153 0 76
-0.221186 0.381573 0.384540 0 0 255
-0.077167 0.395855 0.264446 204 51 127
0.179120 0.224557 0.087352 0 0 255
-0.069563 0.467548 0.434221 0 0 255
-0.125440 -0.793634 -0.357512 127 0 127
0.089141 0.375317 0.239006 204 51 127
-0.121238 -0.890186 -0.227228 127 0 127
-0.090172 0.469910 0.160641 204 51 127
-0.102176 0.433223 0.227898 204 51 127
-0.069977 0.524016 0.296356 0 0 255
0.118985 -0.857840 -0.420203 127 0 127
0.267614 0.263852 0.208191 0 0 255
0.019182 -0.794426 -0.368628 127 0 127
0.194658 0.407767 0.343175 0 0 255
-0.173120 0.189168 0.074920 0 0 255
0.145278 0.340158 0.089674 0 0 255
0.024291 0.233253 0.025823 0 0 255
-0.045890 0.536383 0.072182 153 0 76
-0.018711 0.122158 -0.375199 0 255 0
-0.069108 0.496654 0.363760 0 0 255
-0.009988 -0.045832 -0.367848 0 255 0
-0.008950 0.282253 -0.386753 153 76 0
0.227523 0.384316 0.365891 0 0 255
0.105500 0.180768 0.054802 0 0 255
0.236540 0.373365 0.334252 0 0 255
-0.013862 -0.090587 -0.396474 0 255 0
-0.017725 0.452577 -0.153461 153 0 76
-0.001485 -0.402006 -0.399291 0 255 0
-0.081586 0.429836 0.106987 204 51 127
-0.068954 -0.887269 -0.448536 127 0 127
0.097872 0.530613 0.109205 0 0 255
-0.113974 -0.793634 -0.155918 127 0 127
-0.210153 0.209025 0.117583 0 0 255
0.115572 -0.812771 -0.422822 127 0 127
-0.076820 0.457938 0.451092 0 0 255
0.062272 -0.890186 -0.389932 127 0 127
0.085335 0.147839 0.048090 0 0 255
-0.070488 -0.890186 -0.106852 127 0 127
-0.160703 0.171851 0.065830 0 0 255
0.000902 0.586637 0.122389 153 0 76
-0.219239 -0.820828 -0.296308 127 0 127
0.138247 -0.793634 -0.151062 127 0 127
-0.000008 0.470027 0.274030 204 51 127
-0.082954 -0.793634 -0.327116 127 0 127
0.002961 -0.807145 -0.097132 127 0 127
-0.012408 -0.655321 -0.368851 0 255 0
0.062554 0.568044 0.177667 0 0 255
0.074274 0.340490 0.126205 204 51 127
0.058390 0.461299 0.094126 204 51 127
-0.056455 -0.793634 -0.025853 127 0 127
-0.110489 0.406355 0.145147 204 51 127
-0.010463 0.377390 0.071800 204 51 127
0.066989 -0.890186 -0.287436 127 0 127
0.020115 -0.794418 -0.455705 127 0 127
-0.045601 0.549854 0.114082 153 0 76
-0.073174 0.464954 0.244907 204 51 127
-0.074880 0.434171 0.038492 0 0 255
0.199404 -0.890186 -0.292676 127 0 127
0.175189 -0.793634 -0.241080 127 0 127
-0.158644 -0.890186 -0.248939 127 0 127
-0.066772 -0.793634 -0.439883 127 0 127
-0.120520 -0.890186 -0.154938 127 0 127
-0.002951 0.580617 0.156845 153 0 76
0.044400 0.532142 0.151280 153 0 76
-0.199931 0.202112 0.093476 0 0 255
-0.012074 0.328495 0.097211 204 51 127
-0.172245 -0.793634 -0.305446 127 0 127
0.133846 0.183803 0.066789 0 0 255
-0.093989 0.516186 0.277570 0 0 255
0.033236 -0.793634 -0.170606 127 0 127
-0.100652 0.468694 0.064006 0 0 255
-0.102923 0.388977 0.130564 204 51 127
-0.171660 0.429559 0.376478 0 0 255
0.212293 -0.830243 -0.179703 127 0 127
0.014892 0.564101 0.015174 153 0 76
-0.050023 -0.793634 -0.422400 127 0 127
-0.126551 0.504032 0.265127 0 0 255
0.079518 0.441008 0.456546 0 0 255
0.074293 0.594177 0.031358 0 0 255
0.050963 -0.890186 -0.448775 127 0 127
0.009749 0.428101 0.070058 204 51 127
-0.207547 -0.889301 -0.324536 127 0 127
-0.049146 0.562914 0.039192 153 0 76
0.076917 0.191776 0.035646 0 0 255
-0.030938 0.594247 0.043426 153 0 76
0.017472 0.598106 0.136135 153 0 76
0.135527 0.468148 0.132519 0 0 255
-0.034372 0.566617 0.220011 0 0 255
-0.274345 0.299023 0.272310 0 0 255
-0.164468 0.458334 0.186991 0 0 255
-0.037871 -0.890186 -0.166711 127 0 127
-0.019639 -0.658511 -0.377440 0 255 0
0.046184 -0.793634 -0.409083 127 0 127
0.048646 -0.890186 -0.232981 127 0 127
0.109987 -0.890186 -0.107566 127 0 127
-0.100567 0.257546 0.049325 0 0 255
-0.181504 0.414349 0.400679 0 0 255
-0.028032 0.615058 0.062664 153 0 76
0.057320 0.608733 0.004307 0 0 255
-0.016399 0.495074 0.387608 0 0 255
-0.064180 0.474603 0.035802 0 0 255
0.013312 -0.890186 -0.054140 127 0 127
-0.264404 0.333404 0.325936 0 0 255
-0.106284 -0.890186 -0.139685 127 0 127
-0.142844 0.370092 0.084933 0 0 255
0.147037 0.166312 0.062593 0 0 255
-0.017750 -0.710769 -0.358951 0 255 0
0.017214 -0.890186 -0.352933 127 0 127
0.058017 0.509066 0.035293 0 0 255
0.005785 0.332280 -0.356462 153 76 0
0.122184 -0.864550 -0.052272 127 0 127
-0.110030 0.379850 0.204227 204 51 127
-0.216944 0.365330 0.180902 0 0 255
-0.005334 0.531707 0.054553 153 0 76
0.000946 0.537225 -0.036875 153 0 76
-0.079091 0.482286 0.389766 0 0 255
0.063582 0.550972 0.115013 153 0 76
-0.226067 0.275476 0.138988 0 0 255
-0.096579 -0.834217 -0.032927 127 0 127
-0.009928 0.459689 0.279764 204 51 127
0.193185 0.425252 0.271069 0 0 255
-0.187688 0.433060 0.236970 0 0 255
-0.062708 0.555743 0.061757 153 0 76
0.086865 -0.846456 -0.032498 127 0 127
0.087384 0.481914 0.375403 0 0 255
-0.180783 0.293406 0.096540 0 0 255
0.213183 0.394503 0.381866 0 0 255
-0.024768 0.556334 0.024003 153 0 76
0.115152 0.453770 0.395911 0 0 255
-0.235359 0.377457 0.259299 0 0 255
0.205187 -0.804945 -0.309279 127 0 127
-0.133551 -0.890186 -0.300992 127 0 127
0.145520 0.331595 0.080609 0 0 255
-0.131948 0.473097 0.350269 0 0 255
-0.007790 -0.869177 -0.458471 127 0 127
-0.247909 0.270923 0.167062 0 0 255
0.146984 -0.890186 -0.101974 127 0 127
-0.109639 0.423666 0.060298 0 0 255
0.049630 0.221217 0.036469 0 0 255
0.038245 0.318180 0.239499 204 51 127
-0.009515 0.467848 0.450086 0 0 255
0.022030 -0.863610 -0.014567 127 0 127
-0.180294 0.413855 0.437649 0 0 255
0.102972 0.476141 0.078914 0 0 255
-0.027176 0.342686 -0.344678 153 0 76
0.133181 0.487218 0.159219 0 0 255
0.232520 0.377275 0.303827 0 0 255
-0.241479 0.377123 0.378389 0 0 255
-0.129189 0.164799 0.060186 0 0 255
-0.052553 0.532567 0.143203 153 0 76
-0.149959 0.255571 0.075799 0 0 255
0.029091 0.287043 0.031436 0 0 255
0.216747 -0.834927 -0.213533 127 0 127
-0.201425 -0.793634 -0.313484 127 0 127
-0.121303 0.259726 0.050255 0 0 255
0.205771 -0.876567 -0.162151 127 0 127
0.105223 -0.890186 -0.382838 127 0 127
0.253432 0.280550 0.194053 0 0 255
-0.015660 0.609773 0.004746 0 0 255
0.138079 -0.890186 -0.345821 127 0 127
0.013927 -0.813351 -0.013500 127 0 127
0.028145 0.440746 0.025359 0 0 255
0.138554 0.480861 0.167150 0 0 255
-0.219234 0.383049 0.206224 0 0 255
-0.228677 0.280162 0.159457 0 0 255
0.017596 0.613778 0.154314 255 0 0
-0.227532 0.322404 0.163469 0 0 255
-0.005428 0.346352 -0.350705 153 0 76
0.005444 0.183220 -0.396273 0 255 0
0.196045 0.246321 0.119679 0 0 255
0.180083 0.254300 0.095023 0 0 255
-0.017329 0.307274 -0.393097 0 255 0
-0.008546 -0.301460 -0.367267 0 255 0
0.002203 -0.026635 -0.368219 0 255 0
0.010640 0.350496 -0.328507 153 0 76
0.212450 0.389795 0.298118 0 0 255
-0.170994 -0.890186 -0.161432 127 0 127
0.035402 0.177046 0.027763 0 0 255
-0.103666 0.524372 0.248385 0 0 255
-0.202580 -0.807831 -0.336527 127 0 127
-0.026280 -0.890186 -0.243951 127 0 127
-0.013959 0.651983 0.122785 255 0 0
-0.058051 -0.890186 -0.178405 127 0 127
0.253368 0.325701 0.285981 0 0 255
0.244618 0.341699 0.287874 0 0 255
-0.120240 0.495236 0.104323 0 0 255
-0.008401 -0.809451 -0.372390 127 0 127
-0.062126 0.585021 0.095550 153 0 76
-0.186795 -0.847599 -0.108117 127 0 127
-0.107998 -0.793634 -0.063615 127 0 127
-0.246918 0.332444 0.213067 0 0 255
0.241603 0.274996 0.172297 0 0 255
0.011726 -0.210770 -0.380076 0 255 0
-0.109629 0.436182 0.449025 0 0 255
0.187213 0.219389 0.093674 0 0 255
0.031891 0.440953 0.075127 204 51 127
-0.045504 -0.793634 -0.442055 127 0 127
-0.009598 0.183737 -0.367687 0 255 0
-0.069430 -0.793634 -0.365841 127 0 127
0.229968 0.366047 0.379281 0 0 255
0.095616 0.540913 0.177610 0 0 255
-0.271627 0.334565 0.302149 0 0 255
-0.095017 0.560822 0.106502 255 0 0
0.003321 0.338081 0.026421 0 0 255
0.085537 0.479878 0.364148 0 0 255
0.094671 0.514746 0.264669 0 0 255
0.011108 0.297756 0.211712 204 51 127
-0.024784 0.173954 0.034626 0 0 255
-0.011952 0.424822 -0.179611 153 0 76
-0.018670 0.538863 0.281426 0 0 255
-0.058097 0.539037 0.119377 153 0 76
0.103787 0.374719 0.205757 204 51 127
0.128547 0.503298 0.195612 0 0 255
-0.001914 -0.842746 -0.011415 127 0 127
-0.014002 -0.890186 -0.392609 127 0 127
0.198693 0.394548 0.216169 0 0 255
-0.142846 0.277139 0.072753 0 0 255
0.004487 -0.793634 -0.296880 127 0 127
-0.039242 0.163078 0.036708 0 0 255
-0.195971 -0.793634 -0.242036 127 0 127
0.015017 -0.804751 -0.166298 127 0 127
0.003141 0.296395 -0.409796 0 255 0
0.006005 -0.253133 -0.395842 0 255 0
-0.120395 -0.890186 -0.245876 127 0 127
-0.011224 -0.833918 -0.458018 127 0 127
-0.227490 0.374933 0.394582 0 0 255
0.193517 -0.793634 -0.238200 127 0 127
-0.080665 0.497618 0.050303 0 0 255
-0.017702 -0.194858 -0.373770 0 255 0
-0.002283 0.532325 -0.002060 255 0 0
-0.192083 0.415296 0.410741 0 0 255
0.085677 -0.890186 -0.394432 127 0 127
-0.049069 -0.793634 -0.198830 127 0 127
0.255272 0.333917 0.316441 0 0 255
0.091141 0.548249 0.146079 0 0 255
0.254886 0.238973 0.186962 0 0 255
0.009454 0.294839 0.161530 204 51 127
0.122489 -0.793634 -0.263165 127 0 127
0.200945 0.211252 0.117515 0 0 255
0.173151 0.437686 0.212347 0 0 255
0.182664 0.409991 0.170048 0 0 255
-0.015030 -0.796549 -0.143014 127 0 127
-0.152015 -0.822499 -0.401518 127 0 127
0.115085 -0.793634 -0.148129 127 0 127
0.137874 0.401794 0.089523 0 0 255
0.248278 0.339741 0.254094 0 0 255
0.143952 0.469089 0.160992 0 0 255
0.002387 0.527985 0.305874 0 0 255
0.001619 -0.593082 -0.398403 0 255 0
-0.124379 -0.793634 -0.192060 127 0 127
-0.040828 0.275774 0.026161 0 0 255
0.064202 0.464927 0.437619 0 0 255
0.007333 0.218121 -0.394812 0 255 0
0.034505 0.609011 0.106735 153 0 76
0.206418 -0.873529 -0.306305 127 0 127
0.145295 0.432007 0.401599 0 0 255
-0.020696 0.144545 -0.382274 0 255 0
0.041817 0.180881 0.037247 0 0 255
-0.220632 -0.802163 -0.292908 127 0 127
-0.158836 0.272141 0.074022 0 0 255
-0.092282 0.462337 0.149537 204 51 127
-0.061458 0.516423 0.149897 204 51 127
-0.016767 0.365741 -0.302826 153 0 76
0.076216 0.460943 0.436512 0 0 255
0.140325 -0.873333 -0.066192 127 0 127
-0.111046 0.534094 0.142775 0 0 255
0.219220 -0.855302 -0.232318 127 0 127
-0.030198 -0.790741 -0.373689 0 255 0
-0.010636 0.524237 0.062051 153 0 76
-0.178826 0.171721 0.081633 0 0 255
-0.017417 0.273317 -0.407478 0 255 0
-0.085317 0.618056 0.066761 255 0 0
-0.004973 -0.120474 -0.366797 0 255 0
0.075271 -0.849869 -0.442324 127 0 127
0.020303 0.213946 0.025624 0 0 255
0.020855 0.461690 0.276235 204 51 127
0.132544 0.438032 0.104330 0 0 255
-0.053874 0.517064 0.169509 204 51 127
0.096101 0.518560 0.091850 0 0 255
-0.152014 0.484519 0.244364 0 0 255
-0.003231 -0.890186 -0.249532 127 0 127
0.098657 -0.793634 -0.385453 127 0 127
-0.169915 0.463235 0.217533 0 0 255
0.072589 0.362968 0.041591 0 0 255
0.124805 -0.793634 -0.059482 127 0 127
0.113268 0.440327 0.078732 0 0 255
0.209185 -0.793634 -0.203163 127 0 127
-0.141514 -0.793634 -0.185848 127 0 127
0.006440 0.656797 0.076426 0 0 255
-0.185325 0.309522 0.104423 0 0 255
-0.039962 0.548469 0.081511 153 0 76
-0.065087 0.610795 0.006396 255 0 0
-0.090389 0.561766 0.128747 255 0 0
0.013455 -0.866051 -0.456582 127 0 127
0.058158 0.412269 0.275395 204 51 127
-0.144540 0.399606 0.092287 0 0 255
0.116678 0.339653 0.060124 0 0 255
-0.026546 -0.683710 -0.389333 0 255 0
-0.224540 -0.803392 -0.206791 127 0 127
0.164839 0.224605 0.088388 0 0 255
0.127589 -0.890186 -0.365091 127 0 127
-0.230988 0.236871 0.143560 0 0 255
-0.223939 0.384515 0.229534 0 0 255
0.002284 0.509070 0.219743 204 51 127
-0.239221 0.254517 0.147178 0 0 255
-0.061442 0.181556 0.038458 0 0 255
0.144299 -0.890186 -0.131267 127 0 127
-0.082753 0.205086 0.034938 0 0 255
-0.080815 0.611839 0.097433 255 0 0
-0.011635 0.274367 -0.356507 0 255 0
0.035500 -0.803017 -0.453680 127 0 127
0.033978 0.557696 0.139574 153 0 76
-0.169285 0.206762 0.084680 0 0 255
-0.219080 0.371150 0.191381 0 0 255
-0.109085 -0.890186 -0.390701 127 0 127
0.033234 -0.793634 -0.073983 127 0 127
-0.020179 0.089905 -0.387637 0 255 0
-0.118285 0.427143 0.461900 0 0 255
0.169182 0.415239 0.404786 0 0 255
-0.051663 -0.890186 -0.198871 127 0 127
0.104840 0.153122 0.054836 0 0 255
-0.053718 -0.793634 -0.355465 127 0 127
0.056780 0.569631 0.072880 153 0 76
0.011185 -0.374969 -0.377983 0 255 0
0.057331 0.353771 0.032173 0 0 255
0.002041 0.462777 -0.150033 153 0 76
0.061577 -0.890186 -0.339423 127 0 127
0.027151 0.297752 0.196937 204 51 127
0.081985 0.332672 0.200096 204 51 127
0.000066 0.315091 -0.360372 0 255 0
-0.014066 -0.800319 -0.012376 127 0 127
0.204238 0.333747 0.160673 0 0 255
-0.011495 0.499951 -0.091970 153 0 76
-0.011480 0.302291 0.226183 204 51 127
0.082301 -0.793634 -0.309703 127 0 127
0.034487 0.210100 0.027246 0 0 255
-0.058678 -0.880875 -0.334279 127 0 127
-0.016758 0.557310 0.095729 153 0 76
0.055180 0.455366 0.463155 0 0 255
-0.020654 0.035338 -0.384420 0 255 0
-0.070911 0.507746 0.321557 0 0 255
-0.125231 0.489822 0.312209 0 0 255
0.127492 0.195891 0.063625 0 0 255
-0.013567 0.167166 0.033637 0 0 255
0.099456 0.450042 0.197070 204 51 127
0.161943 -0.793634 -0.286328 127 0 127
-0.161374 0.240405 0.072603 0 0 255
-0.005062 0.389823 -0.273782 153 0 76
-0.050494 0.223119 0.035508 0 0 255
0.017199 0.634204 0.136382 255 0 0
0.106720 -0.888496 -0.429298 127 0 127
-0.003929 -0.790605 -0.109006 76 0 153
0.051599 0.473221 0.087677 204 51 127
0.025597 -0.849927 -0.454983 127 0 127
0.197267 0.421076 0.296360 0 0 255
0.003122 -0.343639 -0.397780 0 255 0
-0.036859 0.626367 0.094231 153 0 76
0.037702 0.620425 0.137826 0 0 255
0.075421 -0.793634 -0.268030 127 0 127
-0.013286 -0.439275 -0.396916 0 255 0
-0.005867 0.450822 0.466655 0 0 255
-0.003744 0.408767 -0.203336 153 0 76
-0.078317 -0.890186 -0.306039 127 0 127
-0.066791 0.441570 0.469977 0 0 255
-0.046640 -0.793634 -0.103374 127 0 127
0.015951 0.444099 0.069393 204 51 127
-0.107798 0.524076 0.229977 0 0 255
0.013193 0.280399 -0.362052 0 255 0
0.145666 -0.793634 -0.195227 127 0 127
0.011658 0.158214 -0.379559 0 255 0
-0.006444 0.621319 0.072209 153 0 76
-0.016845 -0.360741 -0.372653 0 255 0
0.007734 -0.698123 -0.358397 0 255 0
-0.260255 0.336187 0.305283 0 0 255
0.018891 0.308221 0.234100 204 51 127
-0.046731 -0.876626 -0.016676 127 0 127
0.069611 0.483581 0.214340 204 51 127
0.195154 -0.890186 -0.264253 127 0 127
-0.024578 -0.793634 -0.449440 127 0 127
0.095611 0.348494 0.180241 204 51 127
0.265918 0.333191 0.311057 0 0 255
-0.187864 -0.793634 -0.137476 127 0 127
-0.136740 0.456730 0.364481 0 0 255
0.070163 0.342127 0.036327 0 0 255
0.048864 0.474211 0.404930 0 0 255
0.007747 -0.737467 -0.407977 0 255 0
-0.095219 0.218274 0.039461 0 0 255
0.194284 -0.816288 -0.335601 127 0 127
-0.263080 0.309429 0.248577 0 0 255
0.083203 0.295772 0.039862 0 0 255
0.088424 0.333282 0.048064 0 0 255
0.087518 0.459439 0.430006 0 0 255
-0.010188 0.208525 -0.367931 0 255 0
-0.153286 -0.793634 -0.259261 127 0 127
0.244905 0.325046 0.220137 0 0 255
0.138855 -0.873943 -0.404957 127 0 127
0.002195 0.146434 -0.398165 0 255 0
-0.186290 -0.890186 -0.131997 127 0 127
-0.019347 -0.701180 -0.406370 0 255 0
-0.192587 0.424717 0.312961 0 0 255
-0.145865 -0.888957 -0.063782 127 0 127
0.023973 -0.890186 -0.316725 127 0 127
0.030391 0.321090 0.111744 204 51 127
0.056058 -0.871389 -0.019738 127 0 127
0.000427 -0.876891 -0.458297 127 0 127
-0.164468 0.461615 0.267577 0 0 255
-0.171611 -0.793634 -0.144297 127 0 127
-0.218818 0.346875 0.184210 0 0 255
0.058741 -0.793634 -0.345554 127 0 127
0.073164 0.604726 0.103142 255 0 0
-0.064798 0.512593 0.114229 153 0 76
0.094013 0.436742 0.134520 204 51 127
-0.244673 0.358006 0.291156 0 0 255
-0.008737 -0.793634 -0.425739 127 0 127
-0.061998 0.512920 0.029784 255 0 0
0.204110 0.413517 0.324988 0 0 255
0.086343 0.441238 0.475382 0 0 255
0.233346 0.349295 0.256174 0 0 255
0.188263 0.412103 0.351214 0 0 255
-0.024841 0.485066 0.390982 0 0 255
-0.234262 0.372787 0.319730 0 0 255
-0.158768 -0.890186 -0.097936 127 0 127
-0.055275 -0.823726 -0.017801 127 0 127
-0.072942 0.565863 0.178511 0 0 255
0.092649 -0.890186 -0.069839 127 0 127
0.046630 0.472247 0.427890 0 0 255
-0.019468 0.547669 -0.001398 153 0 76
0.181766 -0.793634 -0.206468 127 0 127
-0.019798 0.592529 0.028323 153 0 76
-0.143005 0.491026 0.175176 0 0 255
-0.029978 0.237668 0.025435 0 0 255
0.080024 0.556175 0.167281 0 0 255
0.184915 0.422279 0.319635 0 0 255
-0.049460 0.475009 0.405379 0 0 255
0.076961 0.523802 0.282786 0 0 255
-0.071648 0.364041 0.259000 204 51 127
0.137915 0.348720 0.084341 0 0 255
-0.026098 0.292896 -0.399915 153 76 0
0.157049 -0.873111 -0.080663 127 0 127
0.148991 0.287113 0.082886 0 0 255
-0.273641 0.252336 0.194417 0 0 255
0.012727 0.456684 0.471723 0 0 255
-0.052360 0.436159 0.030817 0 0 255
-0.008150 0.311536 -0.410369 153 76 0
0.001108 -0.495024 -0.398615 0 255 0
-0.006293 0.511780 0.353151 0 0 255
-0.078733 -0.793634 -0.223898 127 0 127
0.001837 0.549238 0.092260 153 0 76
-0.159847 0.450430 0.150882 0 0 255
-0.161913 -0.793634 -0.241114 127 0 127
0.176546 0.426667 0.335972 0 0 255
-0.048091 0.570788 0.144749 153 0 76
-0.077754 -0.890186 -0.064001 127 0 127
-0.247849 0.259536 0.177746 0 0 255
0.043179 0.448637 0.481388 0 0 255
-0.135267 -0.793634 -0.207685 127 0 127
0.029592 0.487046 0.250845 204 51 127
-0.036673 0.575035 0.117436 153 0 76
-0.013532 -0.280974 -0.369653 0 255 0
-0.051049 0.520443 0.310067 0 0 255
0.013351 0.520268 0.062149 153 0 76
0.012829 0.524337 0.003865 0 0 255
0.028018 0.300908 0.210991 204 51 127
0.138940 0.479359 0.260138 0 0 255
-0.261235 0.327836 0.241857 0 0 255
-0.014736 0.616296 0.097361 153 0 76
-0.056323 -0.890186 -0.420619 127 0 127
0.011054 0.566374 0.132763 153 0 76
-0.100016 0.548337 0.155152 0 0 255
-0.018603 -0.890186 -0.362072 127 0 127
-0.214475 0.397250 0.255792 0 0 255
-0.134162 0.462937 0.105272 0 0 255
-0.089912 0.342961 0.214225 204 51 127
0.214434 0.398426 0.264013 0 0 255
0.163501 -0.890186 -0.168937 127 0 127
0.019789 0.366785 0.283758 204 51 127
0.010339 0.559111 0.239499 0 0 255
-0.132464 -0.890186 -0.322961 127 0 127
-0.068944 -0.868430 -0.021480 127 0 127
0.009227 -0.793634 -0.178010 153 76 0
-0.041936 0.597748 0.060448 153 0 76
0.040616 0.595696 0.064757 153 0 76
-0.022050 -0.793634 -0.258652 127 0 127
0.004688 0.390138 -0.246753 153 0 76
0.049775 0.559954 0.052950 153 0 76
-0.069657 0.461467 0.101535 204 51 127
0.052204 0.176385 0.029636 0 0 255
-0.153049 0.414450 0.451682 0 0 255
0.149603 -0.793634 -0.151066 127 0 127
-0.029786 0.504860 0.044965 153 0 76
0.132022 -0.890186 -0.179991 127 0 127
0.032413 0.535969 0.086503 153 0 76
0.064670 0.509954 0.327562 0 0 255
-0.156468 -0.793634 -0.230046 127 0 127
-0.109172 -0.890186 -0.177712 127 0 127
0.011784 -0.340882 -0.380517 0 255 0
0.000520 0.551175 0.258444 0 0 255
0.062237 0.507517 0.122151 153 0 76
0.053117 0.543147 0.257135 0 0 255
-0.104882 -0.843214 -0.036366 127 0 127
0.109417 0.523548 0.167064 0 0 255
0.158090 -0.890186 -0.345423 127 0 127
0.085157 0.467308 0.213052 204 51 127
-0.012426 -0.227103 -0.368858 0 255 0
-0.085860 -0.793634 -0.113534 127 0 127
0.001966 0.275686 -0.356340 0 255 0
-0.082270 0.388503 0.102143 204 51 127
-0.194778 0.206768 0.102528 0 0 255
-0.197760 -0.843535 -0.122406 127 0 127
-0.187347 0.431426 0.195480 0 0 255
-0.023156 -0.793634 -0.226536 127 0 127
0.060966 0.622875 0.024718 0 0 255
0.005687 0.361155 -0.295070 153 0 76
0.013438 0.437773 0.489404 0 0 255
0.071649 -0.793634 -0.039565 127 0 127
-0.091841 0.435012 0.048789 0 0 255
-0.006298 0.133360 -0.366971 0 255 0
-0.173192 -0.890186 -0.195505 127 0 127
0.204676 0.315601 0.140579 0 0 255
-0.040913 0.480333 0.413787 0 0 255
0.125348 0.485141 0.291019 0 0 255
0.120241 0.455291 0.094380 0 0 255
-0.156696 0.428857 0.405381 0 0 255
-0.059515 0.558686 0.216984 0 0 255
-0.082212 -0.890186 -0.087749 127 0 127
0.182032 0.413162 0.373373 0 0 255
-0.198142 -0.890186 -0.283680 127 0 127
-0.041321 -0.793634 -0.351834 127 0 127
-0.061668 0.590725 0.066073 153 0 76
-0.028317 0.258903 0.031526 0 0 255
0.162760 0.305922 0.099633 0 0 255
0.009278 -0.088510 -0.374104 0 255 0
0.104751 0.460713 0.411401 0 0 255
0.180212 -0.879094 -0.359171 127 0 127
-0.225305 -0.804142 -0.257411 127 0 127
0.201173 0.366391 0.182828 0 0 255
0.192316 -0.844616 -0.340353 127 0 127
0.190383 -0.890186 -0.231497 127 0 127
0.005975 0.308580 0.238485 204 51 127
0.045023 0.312823 0.135092 204 51 127
0.033266 -0.793634 -0.044989 127 0 127
0.033550 0.357731 0.083770 204 51 127
-0.148531 0.328735 0.074703 0 0 255
-0.070171 0.240076 0.031333 0 0 255
-0.194183 0.350415 0.141255 0 0 255
-0.011686 0.411703 -0.232479 153 0 76
0.176262 -0.810826 -0.364319 127 0 127
-0.082605 0.578662 0.034078 0 0 255
0.011911 -0.239836 -0.384899 0 255 0
0.116867 -0.793634 -0.172428 127 0 127
0.193816 0.413512 0.375450 0 0 255
-0.172330 0.446897 0.171960 0 0 255
0.263776 0.295191 0.256048 0 0 255
0.212530 -0.808609 -0.288516 127 0 127
-0.148298 0.490614 0.227168 0 0 255
-0.083429 -0.890186 -0.036897 127 0 127
-0.082011 0.562251 0.168726 0 0 255
0.180167 0.403747 0.416676 0 0 255
0.104580 -0.793634 -0.198243 127 0 127
0.114147 0.447710 0.434609 0 0 255
-0.010805 0.344767 -0.314127 153 0 76
0.081426 -0.793634 -0.347072 127 0 127
-0.054285 0.163850 0.029062 0 0 255
0.060717 0.427137 0.091213 204 51 127
-0.004794 0.505282 0.051658 153 0 76
0.008089 -0.514440 -0.372554 0 255 0
0.160048 0.465784 0.246570 0 0 255
0.158511 -0.811226 -0.082569 127 0 127
-0.037176 -0.793634 -0.334429 127 0 127
0.098419 -0.793634 -0.226105 127 0 127
-0.183015 0.217901 0.083551 0 0 255
0.024279 -0.804751 -0.135715 153 76 0
-0.222498 0.384191 0.367019 0 0 255
0.053720 0.318845 0.225705 204 51 127
-0.017419 -0.628763 -0.392980 0 255 0
0.044355 -0.890186 -0.323912 127 0 127
-0.207299 0.390019 0.184697 0 0 255
0.141775 0.227746 0.074385 0 0 255
-0.201000 -0.880375 -0.129678 127 0 127
-0.041240 0.551219 -0.001374 255 0 0
0.256782 0.332038 0.328466 0 0 255
0.239918 0.314917 0.220907 0 0 255
0.126123 0.494456 0.247242 0 0 255
0.229417 0.341543 0.222968 0 0 255
-0.158016 0.389653 0.099359 0 0 255
-0.240777 0.357019 0.270715 0 0 255
-0.050198 0.558844 0.071001 153 0 76
0.064972 0.300898 0.033733 0 0 255
0.101079 0.338657 0.056186 0 0 255
-0.108138 0.491829 0.338988 0 0 255
-0.131879 0.230118 0.063096 0 0 255
0.077040 -0.890186 -0.357285 127 0 127
-0.247571 0.323912 0.227352 0 0 255
-0.093702 0.380255 0.118427 204 51 127
0.090478 -0.869325 -0.033995 127 0 127
-0.020766 -0.138736 -0.382803 0 255 0
0.181597 0.351298 0.125693 0 0 255
0.072589 -0.890186 -0.061469 127 0 127
0.034918 -0.793634 -0.431232 127 0 127
-0.028866 0.620127 0.020530 255 0 0
-0.032555 0.456069 0.448895 0 0 255
0.017789 -0.890186 -0.442353 127 0 127
0.013280 0.546201 0.272277 0 0 255
-0.026474 -0.849438 -0.014009 127 0 127
-0.086976 0.449497 0.123029 204 51 127
-0.128815 -0.867608 -0.050700 127 0 127
-0.082437 0.472419 0.132892 204 51 127
-0.271213 0.340292 0.318539 0 0 255
-0.206243 0.409458 0.321641 0 0 255
0.211725 0.390535 0.271856 0 0 255
0.020498 0.295082 0.182173 204 51 127
-0.015749 -0.327690 -0.395026 0 255 0
0.090178 0.541092 0.191632 0 0 255
0.005886 -0.800822 -0.457578 127 0 127
-0.079732 0.523716 0.045356 0 0 255
0.172870 0.443010 0.320869 0 0 255
0.076468 0.169699 0.044791 0 0 255
-0.060273 -0.793634 -0.202396 127 0 127
-0.084917 0.547807 0.046559 0 0 255
-0.234352 0.372227 0.281191 0 0 255
-0.145534 0.480105 0.265783 0 0 255
0.210437 0.398858 0.372112 0 0 255
-0.044806 -0.890186 -0.264541 127 0 127
0.087027 0.466122 0.157029 204 51 127
0.067029 -0.890186 -0.087283 127 0 127
0.043384 -0.877833 -0.017378 127 0 127
0.173124 -0.793634 -0.184408 127 0 127
0.013881 -0.793634 -0.035987 127 0 127
-0.071885 0.610003 0.118458 0 0 255
0.005192 -0.165310 -0.396466 0 255 0
0.122244 -0.793634 -0.135386 127 0 127
0.115990 -0.890186 -0.343590 127 0 127
-0.140828 0.306752 0.066388 0 0 255
0.056133 0.584865 0.057900 153 0 76
-0.030890 0.246878 -0.390805 0 255 0
0.062793 -0.890186 -0.320976 127 0 127
0.107095 0.260418 0.055056 0 0 255
-0.064567 0.335616 0.031318 0 0 255
-0.158869 -0.883542 -0.396259 127 0 127
-0.152892 0.466968 0.293417 0 0 255
0.048674 -0.793634 -0.187272 127 0 127
0.100275 0.206940 0.052731 0 0 255
0.175690 0.434899 0.302414 0 0 255
0.077504 0.465691 0.423792 0 0 255
-0.062973 -0.890186 -0.380036 127 0 127
0.154585 0.464723 0.200562 0 0 255
0.017341 -0.735992 -0.366230 0 255 0
0.129212 0.489490 0.135984 0 0 255
0.094239 0.444003 0.437218 0 0 255
-0.179179 0.271430 0.100279 0 0 255
0.030640 -0.890186 -0.349722 127 0 127
-0.117900 -0.878323 -0.358866 153 0 76
0.004808 0.546799 0.103919 153 0 76
0.249710 0.296319 0.201776 0 0 255
-0.072436 0.550075 0.230135 0 0 255
-0.027390 -0.890186 -0.048548 127 0 127
-0.008212 0.462492 -0.129877 153 0 76
-0.009767 0.263424 0.029242 0 0 255
-0.014505 -0.089266 -0.370399 0 255 0
0.253314 0.351939 0.321883 0 0 255
0.105240 0.439488 0.190462 204 51 127
-0.024823 0.401417 0.071655 204 51 127
0.166213 0.443244 0.195149 0 0 255
0.237906 0.359071 0.259668 0 0 255
0.134098 0.257791 0.071516 0 0 255
0.085902 -0.793634 -0.132745 127 0 127
0.063566 0.618062 0.109344 255 0 0
0.006710 0.128275 -0.395301 0 255 0
-0.263839 0.317187 0.271848 0 0 255
0.021546 -0.793634 -0.298123 127 0 127
-0.001871 0.380683 0.290467 204 51 127
-0.222076 0.400975 0.298112 0 0 255
-0.142162 0.480729 0.134097 0 0 255
-0.071749 0.629763 0.035217 0 0 255
0.216388 -0.850102 -0.259212 127 0 127
0.099239 0.439125 0.468926 0 0 255
0.046035 0.394245 0.032038 0 0 255
-0.192723 0.251801 0.109335 0 0 255
0.124608 -0.890186 -0.280905 127 0 127
-0.180254 0.409050 0.417545 0 0 255
-0.018756 -0.890186 -0.437520 127 0 127
-0.141708 0.318554 0.068015 0 0 255
0.077532 0.420130 0.044015 0 0 255
0.005790 0.528561 0.059005 153 0 76
0.074166 -0.890186 -0.047555 127 0 127
-0.036329 0.521761 0.312185 0 0 255
-0.117858 -0.836475 -0.427728 127 0 127
-0.083181 0.629619 0.064278 255 0 0
-0.162217 -0.793634 -0.174601 127 0 127
-0.097343 0.405016 0.049317 0 0 255
0.011040 0.258137 -0.405980 0 255 0
0.221239 0.223577 0.126160 0 0 255
0.041927 -0.890186 -0.253667 127 0 127
0.032710 0.538493 0.158408 153 0 76
0.202121 -0.890186 -0.193854 127 0 127
0.043179 0.477800 0.030244 0 0 255
0.180828 0.430795 0.202891 0 0 255
0.050879 -0.890186 -0.159954 127 0 127
-0.159412 -0.793634 -0.355952 127 0 127
0.008822 -0.562878 -0.373509 0 255 0
-0.002336 0.292484 0.180203 204 51 127
-0.073832 -0.796265 -0.023505 127 0 127
0.001411 0.042372 -0.398489 0 255 0
0.112040 0.517469 0.203994 0 0 255
0.072807 0.510767 0.305721 0 0 255
0.003259 -0.778317 -0.409836 0 255 0
0.007679 0.533246 0.030094 153 0 76
0.208365 0.277870 0.141793 0 0 255
0.016361 -0.890186 -0.023503 127 0 127
-0.190444 -0.890186 -0.339740 127 0 127
-0.088292 0.457363 0.132570 204 51 127
-0.111361 0.430419 0.163841 204 51 127
-0.037767 0.555093 0.101675 153 0 76
0.005884 -0.890186 -0.220148 127 0 127
0.250123 0.332180 0.242694 0 0 255
-0.008247 0.326121 -0.342293 153 0 76
0.105532 0.383956 0.151244 204 51 127
0.234703 0.293545 0.188136 0 0 255
-0.080985 0.165565 0.033547 0 0 255
0.023915 0.590429 0.039550 153 0 76
-0.056013 0.462296 0.449855 0 0 255
-0.004953 -0.793634 -0.034649 127 0 127
0.077024 0.258143 0.044139 0 0 255
-0.110598 0.323703 0.055778 0 0 255
-0.250364 0.234114 0.152851 0 0 255
-0.249922 0.352272 0.316137 0 0 255
0.087900 0.339118 0.160463 204 51 127
-0.006142 0.497009 0.371153 0 0 255
0.156389 0.357012 0.096474 0 0 255
0.002215 -0.290970 -0.368224 0 255 0
0.004111 0.213943 0.023827 0 0 255
0.101536 0.363808 0.196967 204 51 127
-0.008603 0.496811 -0.081816 153 0 76
0.127760 -0.793634 -0.161968 127 0 127
0.108850 0.417515 0.163621 204 51 127
-0.026082 0.467568 0.446222 0 0 255
-0.265873 0.260224 0.206873 0 0 255
-0.092710 -0.890186 -0.320697 127 0 127
0.045664 -0.890186 -0.125947 127 0 127
-0.211030 0.231357 0.110429 0 0 255
0.077877 0.207534 0.036287 0 0 255
-0.164741 0.300515 0.083293 0 0 255
0.244271 0.356022 0.278490 0 0 255
0.027771 0.665819 0.102327 255 0 0
0.012760 0.474416 0.021510 0 0 255
-0.157150 0.479045 0.213477 0 0 255
-0.215941 -0.890186 -0.200318 127 0 127
-0.087191 0.609993 0.056416 0 0 255
0.206676 -0.830816 -0.305683 127 0 127
0.022444 -0.818223 -0.455398 127 0 127
-0.009373 -0.807145 -0.117430 153 76 0
0.185108 0.230172 0.106141 0 0 255
-0.002722 0.584900 0.189602 0 0 255
-0.167156 -0.793634 -0.218588 127 0 127
0.153203 0.461395 0.183181 0 0 255
0.011395 0.339624 -0.336579 153 0 76
0.005407 0.411545 -0.222744 153 0 76
-0.214605 0.398170 0.277598 0 0 255
-0.008146 -0.142841 -0.367215 0 255 0
0.049584 0.511781 0.336686 0 0 255
-0.059121 0.568492 0.044359 153 0 76
0.041455 0.504241 0.208368 204 51 127
0.086578 0.539994 0.216938 0 0 255
0.002831 -0.890186 -0.434012 127 0 127
-0.007089 -0.890186 -0.074882 127 0 127
-0.131526 -0.793634 -0.316841 127 0 127
-0.071889 -0.793634 -0.305056 127 0 127
-0.020500 0.108966 -0.385592 0 255 0
