0.271164 0.559342 -0.018049 0.300000 0.600000 0.000000
0.520116 0.358163 0.069890 0.600000 0.000000 0.300000
-0.118319 0.260987 0.068888 0.600000 0.000000 0.300000
-0.047124 -0.599743 -0.208557 0.000000 0.500000 0.500000
0.581578 -0.207038 0.068888 0.600000 0.000000 0.300000
-0.061743 -0.110696 0.068888 0.600000 0.000000 0.300000
0.055668 0.139244 -0.098884 0.300000 0.600000 0.000000
0.091686 -0.448044 -0.121196 0.500000 0.000000 0.500000
-0.671085 -0.298342 0.069890 0.600000 0.000000 0.300000
0.541218 -0.146500 0.068888 0.600000 0.000000 0.300000
-0.242379 0.598770 0.003694 0.300000 0.600000 0.000000
-0.429770 0.550263 -0.022984 0.300000 0.600000 0.000000
0.412866 0.611021 0.033761 0.300000 0.600000 0.000000
-0.514025 -0.251614 0.069536 0.600000 0.000000 0.300000
-0.500622 0.520299 0.070214 0.600000 0.000000 0.300000
0.627743 -0.417839 0.004445 0.300000 0.600000 0.000000
-0.436814 0.130509 -0.098884 0.300000 0.600000 0.000000
-0.397537 0.514994 -0.042151 0.300000 0.600000 0.000000
-0.255080 -0.127592 0.068888 0.600000 0.000000 0.300000
0.237048 -0.105197 -0.098884 0.300000 0.600000 0.000000
-0.115427 -0.599774 -0.130004 0.000000 0.500000 0.500000
-0.403159 0.135060 -0.098884 0.300000 0.600000 0.000000
-0.570831 -0.344940 0.070888 0.600000 0.000000 0.300000
-0.006828 0.115689 -0.098884 0.300000 0.600000 0.000000
-0.214338 0.531556 -0.033150 0.300000 0.600000 0.000000
0.599318 -0.268351 -0.062455 0.300000 0.600000 0.000000
0.249011 -0.261105 0.068888 0.600000 0.000000 0.300000
0.046154 -0.401812 -0.002892 0.300000 0.600000 0.000000
0.177905 -0.383682 0.077418 0.600000 0.000000 0.300000
-0.505272 -0.072162 0.069890 0.600000 0.000000 0.300000
0.741895 -0.011591 0.076501 0.300000 0.600000 0.000000
-0.262347 -0.646263 0.096596 0.000000 0.500000 0.500000
0.054250 -0.209881 -0.158259 0.500000 0.000000 0.500000
-0.499642 0.524081 -0.037212 0.300000 0.600000 0.000000
0.077192 -0.599743 -0.198630 0.000000 0.500000 0.500000
0.795189 0.054544 0.024039 0.300000 0.600000 0.000000
-0.679618 0.566174 0.078315 0.600000 0.000000 0.300000
-0.058656 -0.148585 0.068888 0.600000 0.000000 0.300000
-0.044425 0.156207 -0.098884 0.300000 0.600000 0.000000
-0.184176 0.560746 -0.017286 0.300000 0.600000 0.000000
0.705256 0.011695 0.070182 0.300000 0.600000 0.000000
-0.589536 -0.247543 -0.071776 0.300000 0.600000 0.000000
-0.794797 0.235408 0.004127 0.300000 0.600000 0.000000
-0.272227 0.444634 -0.080388 0.300000 0.600000 0.000000
0.588815 0.499535 -0.050551 0.300000 0.600000 0.000000
-0.579303 -0.430650 0.024887 0.300000 0.600000 0.000000
0.382924 -0.364319 0.073964 0.600000 0.000000 0.300000
0.580782 0.328092 -0.086758 0.300000 0.600000 0.000000
0.139455 -0.427651 0.012036 0.300000 0.600000 0.000000
-0.264870 -0.646263 -0.020614 0.000000 0.500000 0.500000
-0.508073 0.319925 -0.098884 0.300000 0.600000 0.000000
-0.687018 -0.262045 -0.044570 0.300000 0.600000 0.000000
-0.621722 0.068209 0.069890 0.600000 0.000000 0.300000
0.617545 -0.367589 -0.018165 0.300000 0.600000 0.000000
0.063440 -0.599883 -0.154650 0.000000 0.500000 0.500000
0.027040 -0.554562 -0.048469 0.500000 0.000000 0.500000
0.053364 0.479742 0.068888 0.600000 0.000000 0.300000
0.115688 -0.061845 0.068888 0.600000 0.000000 0.300000
-0.664543 -0.331497 -0.034274 0.300000 0.600000 0.000000
-0.639205 -0.410513 0.078323 0.300000 0.600000 0.000000
-0.441040 0.342563 -0.098884 0.300000 0.600000 0.000000
-0.275674 0.531957 0.071867 0.600000 0.000000 0.300000
-0.081557 0.609322 0.057222 0.300000 0.600000 0.000000
-0.404940 -0.646263 0.082053 0.000000 0.500000 0.500000
-0.808235 0.152246 0.038914 0.300000 0.600000 0.000000
0.228959 -0.246670 -0.072164 0.300000 0.600000 0.000000
0.150703 0.435277 -0.085469 0.300000 0.600000 0.000000
0.539889 0.556477 -0.019607 0.300000 0.600000 0.000000
0.434662 0.057673 0.068888 0.600000 0.000000 0.300000
0.466603 0.055345 0.068888 0.600000 0.000000 0.300000
0.191050 0.477407 -0.062577 0.300000 0.600000 0.000000
0.380994 -0.226429 -0.081190 0.300000 0.600000 0.000000
-0.785649 0.389579 -0.000158 0.300000 0.600000 0.000000
0.778594 0.286877 0.075830 0.300000 0.600000 0.000000
0.645002 0.422045 -0.057830 0.300000 0.600000 0.000000
0.265234 -0.636547 -0.079585 0.000000 0.500000 0.500000
-0.096231 -0.318996 -0.134503 0.500000 0.000000 0.500000
0.627075 -0.407829 0.078388 0.300000 0.600000 0.000000
0.106905 -0.214827 -0.086373 0.300000 0.600000 0.000000
-0.123407 -0.320752 0.068884 0.600000 0.000000 0.300000
0.783410 -0.259303 0.073576 0.300000 0.600000 0.000000
-0.558543 0.110552 -0.097481 0.300000 0.600000 0.000000
-0.512667 0.611173 0.026043 0.300000 0.600000 0.000000
0.525114 -0.090562 0.068888 0.600000 0.000000 0.300000
-0.080467 -0.646263 -0.144050 0.000000 0.500000 0.500000
0.734574 0.441593 -0.017481 0.300000 0.600000 0.000000
0.336037 0.427905 0.068888 0.600000 0.000000 0.300000
0.795452 0.297979 0.032999 0.300000 0.600000 0.000000
-0.430977 -0.134904 -0.098884 0.300000 0.600000 0.000000
0.254672 0.449898 -0.077527 0.300000 0.600000 0.000000
-0.745113 -0.353427 -0.018199 0.300000 0.600000 0.000000
0.169751 -0.599744 0.100599 0.000000 0.500000 0.500000
-0.033317 0.065044 -0.132633 0.500000 0.000000 0.500000
-0.443186 -0.646263 0.154756 0.000000 0.500000 0.500000
0.160042 -0.646263 -0.064960 0.000000 0.500000 0.500000
-0.761359 0.509806 0.075821 0.600000 0.000000 0.300000
0.033075 -0.646263 -0.066212 0.000000 0.500000 0.500000
-0.648229 0.528394 -0.034867 0.300000 0.600000 0.000000
0.795445 -0.187123 0.034395 0.300000 0.600000 0.000000
-0.635746 -0.192008 0.069890 0.600000 0.000000 0.300000
0.335989 0.377381 -0.098884 0.300000 0.600000 0.000000
-0.088980 -0.018402 0.068887 0.600000 0.000000 0.300000
0.070523 0.579863 0.078163 0.300000 0.600000 0.000000
0.748388 -0.259399 0.077882 0.300000 0.600000 0.000000
0.280278 0.495369 0.068888 0.600000 0.000000 0.300000
-0.178484 0.118105 -0.098884 0.300000 0.600000 0.000000
-0.131596 -0.600363 0.075639 0.000000 0.500000 0.500000
0.557391 0.430197 0.069620 0.600000 0.000000 0.300000
-0.680589 0.407215 0.068888 0.600000 0.000000 0.300000
-0.250606 0.464712 -0.069476 0.300000 0.600000 0.000000
-0.389338 -0.413476 0.078252 0.300000 0.600000 0.000000
-0.415001 -0.293463 -0.051254 0.300000 0.600000 0.000000
-0.587956 0.353190 0.068888 0.600000 0.000000 0.300000
0.050639 -0.132480 0.068888 0.600000 0.000000 0.300000
0.114649 -0.621009 0.092514 0.000000 0.500000 0.500000
-0.372734 -0.025223 -0.098884 0.300000 0.600000 0.000000
0.180397 -0.623935 -0.118126 0.000000 0.500000 0.500000
0.099929 -0.110295 0.068888 0.600000 0.000000 0.300000
0.497921 -0.638545 0.026126 0.000000 0.500000 0.500000
-0.370566 -0.418387 0.004716 0.300000 0.600000 0.000000
0.025440 -0.604072 -0.279307 0.000000 0.500000 0.500000
0.722001 0.221347 -0.023144 0.300000 0.600000 0.000000
-0.613986 0.553855 -0.021032 0.300000 0.600000 0.000000
-0.470995 0.316561 0.068888 0.600000 0.000000 0.300000
0.629413 -0.430674 0.050952 0.300000 0.600000 0.000000
0.553096 0.141312 0.069890 0.600000 0.000000 0.300000
-0.082343 -0.198612 -0.134379 0.500000 0.000000 0.500000
-0.705056 -0.307387 -0.036430 0.300000 0.600000 0.000000
-0.412297 -0.600744 0.016822 0.000000 0.500000 0.500000
-0.808234 0.018235 0.032259 0.300000 0.600000 0.000000
-0.701850 -0.198345 0.069884 0.600000 0.000000 0.300000
0.495808 0.451062 0.068888 0.600000 0.000000 0.300000
-0.283177 -0.343211 -0.029045 0.300000 0.600000 0.000000
0.019984 -0.646263 -0.023152 0.000000 0.500000 0.500000
0.080055 0.249646 0.068888 0.600000 0.000000 0.300000
0.225184 0.045575 0.068888 0.600000 0.000000 0.300000
-0.148908 0.504153 0.068884 0.600000 0.000000 0.300000
0.339844 -0.043304 -0.098884 0.300000 0.600000 0.000000
-0.807331 -0.370293 0.062491 0.300000 0.600000 0.000000
0.253439 -0.157511 0.068888 0.600000 0.000000 0.300000
-0.269627 0.124098 0.068913 0.600000 0.000000 0.300000
0.795255 -0.314962 0.045655 0.300000 0.600000 0.000000
-0.113906 -0.223502 0.068888 0.600000 0.000000 0.300000
-0.314786 -0.069057 0.069890 0.600000 0.000000 0.300000
-0.123795 0.238669 -0.098884 0.300000 0.600000 0.000000
-0.040707 0.256604 -0.098884 0.300000 0.600000 0.000000
-0.168954 0.511389 -0.044110 0.300000 0.600000 0.000000
-0.507186 0.374704 0.068888 0.600000 0.000000 0.300000
-0.628744 -0.064325 -0.070852 0.300000 0.600000 0.000000
-0.091950 -0.127267 -0.158258 0.500000 0.000000 0.500000
-0.166696 -0.025191 -0.098884 0.300000 0.600000 0.000000
-0.403744 0.153897 0.068888 0.600000 0.000000 0.300000
0.099024 -0.019105 -0.098884 0.300000 0.600000 0.000000
0.009181 -0.340259 0.070196 0.600000 0.000000 0.300000
-0.082038 0.004878 -0.098884 0.300000 0.600000 0.000000
-0.059642 0.118418 -0.098884 0.300000 0.600000 0.000000
-0.001687 -0.234139 -0.077745 0.300000 0.600000 0.000000
-0.451952 -0.045669 0.069890 0.600000 0.000000 0.300000
0.669747 0.393935 0.069890 0.600000 0.000000 0.300000
-0.089654 0.453418 0.068888 0.600000 0.000000 0.300000
0.222393 -0.041729 0.068888 0.600000 0.000000 0.300000
0.218264 0.261080 -0.098884 0.300000 0.600000 0.000000
0.103319 -0.246358 0.068888 0.600000 0.000000 0.300000
-0.062849 -0.178296 -0.158259 0.500000 0.000000 0.500000
-0.034378 -0.280129 -0.152551 0.500000 0.000000 0.500000
-0.044768 0.300212 -0.098884 0.300000 0.600000 0.000000
0.534737 0.609802 0.053472 0.300000 0.600000 0.000000
0.752154 -0.117578 0.078296 0.300000 0.600000 0.000000
-0.497147 -0.346688 -0.027493 0.300000 0.600000 0.000000
-0.293775 0.446598 0.068888 0.600000 0.000000 0.300000
-0.015034 0.539590 -0.028784 0.300000 0.600000 0.000000
-0.782682 0.062671 0.078384 0.300000 0.600000 0.000000
-0.078887 -0.184040 0.068888 0.600000 0.000000 0.300000
-0.605067 0.388085 0.068888 0.600000 0.000000 0.300000
0.565015 0.372671 0.069890 0.600000 0.000000 0.300000
-0.806300 -0.182595 0.065802 0.300000 0.600000 0.000000
0.577443 0.197582 -0.088260 0.300000 0.600000 0.000000
-0.334596 0.585718 -0.003714 0.300000 0.600000 0.000000
0.074070 0.024490 -0.098884 0.300000 0.600000 0.000000
0.349580 0.534829 -0.031371 0.300000 0.600000 0.000000
0.736844 0.291539 -0.016458 0.300000 0.600000 0.000000
0.603362 0.565032 0.077915 0.600000 0.000000 0.300000
0.404617 0.425628 -0.090275 0.300000 0.600000 0.000000
-0.054347 -0.646263 0.032997 0.000000 0.500000 0.500000
-0.241779 0.485956 0.068888 0.600000 0.000000 0.300000
-0.450405 -0.167483 0.069890 0.600000 0.000000 0.300000
-0.325088 -0.163843 0.068887 0.600000 0.000000 0.300000
0.051509 0.393892 -0.098323 0.300000 0.600000 0.000000
0.517859 0.485946 -0.057937 0.300000 0.600000 0.000000
0.026080 -0.616863 0.109558 0.000000 0.500000 0.500000
0.005264 -0.573223 -0.060257 0.500000 0.000000 0.500000
0.782055 -0.310219 0.004140 0.300000 0.600000 0.000000
-0.419131 -0.189162 -0.095742 0.300000 0.600000 0.000000
0.430395 -0.145972 -0.098884 0.300000 0.600000 0.000000
-0.779014 -0.328441 0.078535 0.300000 0.600000 0.000000
-0.335897 -0.645865 -0.036518 0.000000 0.500000 0.500000
0.572572 0.468993 -0.067149 0.300000 0.600000 0.000000
-0.599508 0.294001 -0.084000 0.300000 0.600000 0.000000
0.577675 -0.178068 0.068888 0.600000 0.000000 0.300000
0.287099 -0.216173 0.068888 0.600000 0.000000 0.300000
-0.010148 -0.215555 -0.133980 0.500000 0.000000 0.500000
-0.410008 0.473241 -0.064841 0.300000 0.600000 0.000000
-0.593245 -0.150187 0.069890 0.600000 0.000000 0.300000
0.612266 -0.386908 0.078246 0.300000 0.600000 0.000000
0.120554 -0.108263 -0.098884 0.300000 0.600000 0.000000
-0.165873 -0.646263 0.011891 0.000000 0.500000 0.500000
-0.517937 -0.400783 0.078516 0.300000 0.600000 0.000000
-0.507057 -0.222401 0.069889 0.600000 0.000000 0.300000
-0.399957 0.050432 0.069890 0.600000 0.000000 0.300000
-0.208476 -0.430712 0.046108 0.300000 0.600000 0.000000
0.360815 -0.011295 0.068888 0.600000 0.000000 0.300000
-0.010567 0.147348 -0.098884 0.300000 0.600000 0.000000
0.451449 -0.154131 -0.098883 0.300000 0.600000 0.000000
0.184915 -0.245155 -0.072837 0.300000 0.600000 0.000000
-0.243644 0.418522 -0.093260 0.300000 0.600000 0.000000
0.103856 0.525485 -0.036449 0.300000 0.600000 0.000000
0.207254 0.353192 0.068888 0.600000 0.000000 0.300000
-0.077070 -0.150619 -0.098883 0.300000 0.600000 0.000000
0.239074 -0.207540 0.068888 0.600000 0.000000 0.300000
-0.640970 0.402515 0.068888 0.600000 0.000000 0.300000
-0.261910 0.219794 -0.098884 0.300000 0.600000 0.000000
0.062164 -0.214310 -0.134023 0.500000 0.000000 0.500000
0.484499 0.292733 -0.098884 0.300000 0.600000 0.000000
-0.213565 0.369262 0.068888 0.600000 0.000000 0.300000
-0.153229 0.542026 0.073713 0.600000 0.000000 0.300000
-0.023972 -0.619386 0.110950 0.000000 0.500000 0.500000
0.398873 -0.599787 -0.009592 0.000000 0.500000 0.500000
0.205323 -0.139318 -0.098884 0.300000 0.600000 0.000000
-0.257797 0.241295 0.068888 0.600000 0.000000 0.300000
-0.438484 0.548590 0.075068 0.600000 0.000000 0.300000
0.057700 -0.599750 0.078352 0.000000 0.500000 0.500000
-0.492700 0.225405 -0.098884 0.300000 0.600000 0.000000
0.647000 0.187401 -0.056930 0.300000 0.600000 0.000000
0.279668 -0.610777 -0.073290 0.000000 0.500000 0.500000
-0.219513 -0.252857 0.068888 0.600000 0.000000 0.300000
-0.272648 -0.600235 0.050935 0.000000 0.500000 0.500000
0.428236 0.513481 0.069118 0.600000 0.000000 0.300000
0.791812 -0.418895 0.010355 0.300000 0.600000 0.000000
-0.175675 0.569657 0.078334 0.300000 0.600000 0.000000
0.096050 0.063160 -0.157882 0.500000 0.000000 0.500000
0.684195 0.216627 0.069888 0.600000 0.000000 0.300000
-0.177299 -0.253229 -0.069254 0.300000 0.600000 0.000000
0.396078 0.264143 0.069890 0.600000 0.000000 0.300000
0.759752 0.029968 0.078419 0.300000 0.600000 0.000000
-0.800070 -0.102709 0.074766 0.300000 0.600000 0.000000
0.013595 0.170247 -0.098884 0.300000 0.600000 0.000000
-0.108981 -0.169082 -0.135391 0.500000 0.000000 0.500000
-0.218627 -0.646263 -0.067006 0.000000 0.500000 0.500000
0.132970 0.531194 -0.033347 0.300000 0.600000 0.000000
-0.386334 0.584946 -0.004134 0.300000 0.600000 0.000000
0.309816 0.610638 0.024064 0.300000 0.600000 0.000000
-0.158379 -0.384315 -0.010706 0.300000 0.600000 0.000000
-0.039230 -0.216833 -0.133643 0.500000 0.000000 0.500000
-0.049825 0.193636 0.068888 0.600000 0.000000 0.300000
0.083283 -0.491240 -0.091867 0.500000 0.000000 0.500000
-0.007042 -0.461399 -0.137256 0.500000 0.000000 0.500000
0.027960 0.015432 -0.158259 0.500000 0.000000 0.500000
-0.624820 -0.380756 -0.012294 0.300000 0.600000 0.000000
-0.588467 -0.268126 -0.062565 0.300000 0.600000 0.000000
0.560851 0.545472 -0.025588 0.300000 0.600000 0.000000
0.353356 0.358882 -0.098884 0.300000 0.600000 0.000000
-0.314820 -0.646263 0.093496 0.000000 0.500000 0.500000
0.047779 0.164637 -0.098884 0.300000 0.600000 0.000000
0.179320 0.239812 -0.098884 0.300000 0.600000 0.000000
-0.693624 0.279389 0.068888 0.600000 0.000000 0.300000
0.659467 0.107143 0.069543 0.600000 0.000000 0.300000
-0.380972 0.499495 -0.050573 0.300000 0.600000 0.000000
-0.115957 -0.614287 -0.154880 0.000000 0.500000 0.500000
-0.192261 0.203003 -0.098884 0.300000 0.600000 0.000000
-0.386087 -0.164599 0.069574 0.600000 0.000000 0.300000
0.549944 0.340545 0.069890 0.600000 0.000000 0.300000
-0.807365 -0.323932 0.062384 0.300000 0.600000 0.000000
0.452635 -0.192297 -0.094800 0.300000 0.600000 0.000000
0.123559 0.226136 -0.098884 0.300000 0.600000 0.000000
0.542847 0.037899 -0.097944 0.300000 0.600000 0.000000
-0.074549 0.116945 -0.129343 0.500000 0.000000 0.500000
-0.463764 -0.413158 0.078259 0.300000 0.600000 0.000000
0.648974 0.609681 0.054413 0.300000 0.600000 0.000000
0.382138 0.070942 0.068888 0.600000 0.000000 0.300000
-0.422391 -0.602755 0.131452 0.000000 0.500000 0.500000
0.787290 0.102286 0.071088 0.300000 0.600000 0.000000
0.119129 -0.049419 -0.098884 0.300000 0.600000 0.000000
0.623967 -0.267922 0.068888 0.600000 0.000000 0.300000
-0.370362 -0.066160 0.069890 0.600000 0.000000 0.300000
0.046915 -0.599743 -0.186921 0.000000 0.500000 0.500000
-0.110302 -0.453553 -0.123993 0.500000 0.000000 0.500000
-0.638595 0.041520 -0.066406 0.300000 0.600000 0.000000
-0.101512 0.089267 -0.122307 0.500000 0.000000 0.500000
-0.092893 -0.646263 -0.010321 0.000000 0.500000 0.500000
0.128625 0.085245 -0.098884 0.300000 0.600000 0.000000
-0.074927 -0.599819 0.077286 0.000000 0.500000 0.500000
-0.235502 0.256526 -0.098884 0.300000 0.600000 0.000000
0.233707 0.576593 -0.008675 0.300000 0.600000 0.000000
-0.806886 0.390613 0.063919 0.300000 0.600000 0.000000
-0.537842 -0.314107 -0.042038 0.300000 0.600000 0.000000
0.104893 0.062277 0.068888 0.600000 0.000000 0.300000
0.627459 0.107712 -0.065744 0.300000 0.600000 0.000000
0.139411 0.167742 -0.098884 0.300000 0.600000 0.000000
0.158136 0.222928 0.068888 0.600000 0.000000 0.300000
0.431404 -0.607519 0.133742 0.000000 0.500000 0.500000
-0.345206 0.397188 -0.097947 0.300000 0.600000 0.000000
0.428071 -0.019616 0.068888 0.600000 0.000000 0.300000
0.794919 0.043831 0.045460 0.300000 0.600000 0.000000
-0.024380 0.312952 0.068888 0.600000 0.000000 0.300000
0.146161 -0.324735 -0.037293 0.300000 0.600000 0.000000
0.138114 -0.362284 0.073630 0.600000 0.000000 0.300000
-0.228477 -0.646263 0.043493 0.000000 0.500000 0.500000
-0.068263 0.407160 -0.096519 0.300000 0.600000 0.000000
-0.621427 0.425505 0.068888 0.600000 0.000000 0.300000
-0.634531 0.175619 -0.068253 0.300000 0.600000 0.000000
-0.167114 -0.639899 -0.125675 0.000000 0.500000 0.500000
-0.082914 -0.481032 -0.123724 0.500000 0.000000 0.500000
0.420070 0.048106 -0.098884 0.300000 0.600000 0.000000
-0.414910 -0.600743 0.042098 0.000000 0.500000 0.500000
0.013996 0.235698 -0.098884 0.300000 0.600000 0.000000
-0.327226 0.173842 0.068888 0.600000 0.000000 0.300000
-0.145810 0.492500 -0.054375 0.300000 0.600000 0.000000
0.043978 0.040197 0.068888 0.600000 0.000000 0.300000
-0.478942 -0.269694 -0.061865 0.300000 0.600000 0.000000
-0.147418 0.531466 -0.033198 0.300000 0.600000 0.000000
0.072421 -0.518921 -0.072874 0.500000 0.000000 0.500000
-0.004214 0.600797 0.072066 0.300000 0.600000 0.000000
-0.324533 -0.646263 0.135265 0.000000 0.500000 0.500000
0.619120 -0.198546 0.068888 0.600000 0.000000 0.300000
0.011620 -0.235271 0.068888 0.600000 0.000000 0.300000
-0.295405 -0.020556 -0.098884 0.300000 0.600000 0.000000
0.419464 0.174748 0.069890 0.600000 0.000000 0.300000
-0.236146 -0.086280 -0.098884 0.300000 0.600000 0.000000
0.274856 -0.023035 0.068888 0.600000 0.000000 0.300000
-0.502657 0.185811 -0.098884 0.300000 0.600000 0.000000
0.333477 -0.599817 0.172045 0.000000 0.500000 0.500000
0.506338 -0.164255 0.068888 0.600000 0.000000 0.300000
0.459576 0.423431 -0.091337 0.300000 0.600000 0.000000
0.121045 0.430283 0.068888 0.600000 0.000000 0.300000
0.559194 0.389187 -0.094821 0.300000 0.600000 0.000000
-0.478835 -0.641749 0.131335 0.000000 0.500000 0.500000
0.520570 -0.120770 0.068888 0.600000 0.000000 0.300000
-0.057500 -0.561627 -0.068245 0.500000 0.000000 0.500000
0.266523 -0.645056 0.156003 0.000000 0.500000 0.500000
0.241172 0.183040 -0.098884 0.300000 0.600000 0.000000
0.161610 0.475830 -0.063434 0.300000 0.600000 0.000000
-0.578076 0.471445 0.068888 0.600000 0.000000 0.300000
0.076278 0.134002 -0.112906 0.500000 0.000000 0.500000
0.327562 0.596017 0.002021 0.300000 0.600000 0.000000
0.685205 0.060574 0.068885 0.600000 0.000000 0.300000
-0.258994 -0.230883 -0.079200 0.300000 0.600000 0.000000
0.333409 -0.062606 0.068888 0.600000 0.000000 0.300000
-0.768982 -0.116500 -0.007657 0.300000 0.600000 0.000000
-0.451201 -0.430638 0.055377 0.300000 0.600000 0.000000
0.064408 0.283845 -0.098884 0.300000 0.600000 0.000000
-0.715858 -0.068945 0.069883 0.600000 0.000000 0.300000
-0.014123 -0.357976 -0.022453 0.300000 0.600000 0.000000
-0.084732 -0.606392 -0.280723 0.000000 0.500000 0.500000
-0.287814 -0.059059 -0.098884 0.300000 0.600000 0.000000
0.047115 0.440946 -0.082391 0.300000 0.600000 0.000000
-0.023767 -0.646263 -0.059050 0.000000 0.500000 0.500000
0.001759 -0.382626 -0.156240 0.500000 0.000000 0.500000
-0.253553 -0.646263 0.075162 0.000000 0.500000 0.500000
0.450732 -0.646205 0.147521 0.000000 0.500000 0.500000
0.220211 0.302051 0.068888 0.600000 0.000000 0.300000
-0.147426 -0.213384 0.068888 0.600000 0.000000 0.300000
-0.803866 -0.220690 0.072343 0.300000 0.600000 0.000000
0.061677 -0.326132 -0.158259 0.500000 0.000000 0.500000
0.723295 -0.084965 0.073099 0.300000 0.600000 0.000000
0.671242 0.251695 0.069890 0.600000 0.000000 0.300000
-0.582084 0.190119 0.068888 0.600000 0.000000 0.300000
0.499749 -0.645213 0.073801 0.000000 0.500000 0.500000
0.246605 -0.319646 -0.039565 0.300000 0.600000 0.000000
0.505472 -0.074482 0.068888 0.600000 0.000000 0.300000
0.214801 0.307852 -0.098884 0.300000 0.600000 0.000000
-0.447499 0.306990 0.068888 0.600000 0.000000 0.300000
-0.384665 0.294629 0.068888 0.600000 0.000000 0.300000
-0.556359 0.313670 0.068888 0.600000 0.000000 0.300000
0.097657 -0.176165 -0.158166 0.500000 0.000000 0.500000
-0.275183 -0.646128 0.146510 0.000000 0.500000 0.500000
0.290299 0.214921 -0.098884 0.300000 0.600000 0.000000
-0.733153 0.611202 0.030533 0.300000 0.600000 0.000000
-0.105810 0.469262 -0.067003 0.300000 0.600000 0.000000
-0.678770 0.091155 0.069539 0.600000 0.000000 0.300000
0.032313 -0.537071 -0.060400 0.500000 0.000000 0.500000
-0.002379 0.311999 0.068888 0.600000 0.000000 0.300000
0.250943 -0.646263 0.087266 0.000000 0.500000 0.500000
0.588161 -0.029064 -0.083434 0.300000 0.600000 0.000000
0.112885 -0.240968 -0.074695 0.300000 0.600000 0.000000
0.603226 0.461921 -0.070624 0.300000 0.600000 0.000000
-0.668492 0.282872 0.068888 0.600000 0.000000 0.300000
0.486395 -0.119861 -0.098884 0.300000 0.600000 0.000000
-0.692917 -0.430732 0.043604 0.300000 0.600000 0.000000
-0.421384 0.061088 0.069890 0.600000 0.000000 0.300000
0.074680 -0.246460 -0.072256 0.300000 0.600000 0.000000
-0.772859 -0.430162 0.016987 0.300000 0.600000 0.000000
0.733685 0.372500 0.075021 0.300000 0.600000 0.000000
0.169851 -0.311474 -0.043214 0.300000 0.600000 0.000000
-0.742200 0.313829 -0.019710 0.300000 0.600000 0.000000
-0.643654 0.402278 -0.064107 0.300000 0.600000 0.000000
-0.456691 0.143205 -0.098884 0.300000 0.600000 0.000000
-0.045632 0.225096 0.068888 0.600000 0.000000 0.300000
0.106472 -0.634927 -0.172923 0.000000 0.500000 0.500000
0.459862 0.174049 0.069890 0.600000 0.000000 0.300000
-0.360105 -0.040214 0.069890 0.600000 0.000000 0.300000
0.371628 0.461889 -0.071011 0.300000 0.600000 0.000000
-0.038307 -0.600276 0.015830 0.000000 0.500000 0.500000
0.690684 0.576978 -0.008466 0.300000 0.600000 0.000000
-0.710701 -0.430614 0.058427 0.300000 0.600000 0.000000
0.563571 -0.314039 -0.042068 0.300000 0.600000 0.000000
-0.293606 -0.361476 0.073695 0.600000 0.000000 0.300000
-0.445324 -0.092993 -0.098884 0.300000 0.600000 0.000000
0.678807 0.596154 0.002104 0.300000 0.600000 0.000000
-0.673674 0.435363 0.068888 0.600000 0.000000 0.300000
0.196970 0.610868 0.033888 0.300000 0.600000 0.000000
0.280711 0.610135 0.047820 0.300000 0.600000 0.000000
0.474807 -0.309588 -0.044055 0.300000 0.600000 0.000000
0.250533 -0.622099 0.153879 0.000000 0.500000 0.500000
0.444159 0.392161 0.068963 0.600000 0.000000 0.300000
-0.016985 -0.599974 -0.257547 0.000000 0.500000 0.500000
-0.197200 0.532546 0.071975 0.600000 0.000000 0.300000
-0.070072 -0.090255 -0.098884 0.300000 0.600000 0.000000
0.037245 -0.430740 0.027146 0.300000 0.600000 0.000000
-0.169727 -0.091699 0.068888 0.600000 0.000000 0.300000
-0.389662 0.131856 0.068887 0.600000 0.000000 0.300000
0.228918 0.609827 0.050033 0.300000 0.600000 0.000000
0.641967 -0.108847 0.068888 0.600000 0.000000 0.300000
0.294350 0.532092 0.071891 0.600000 0.000000 0.300000
-0.236304 0.442256 0.068888 0.600000 0.000000 0.300000
0.248499 0.380045 -0.098884 0.300000 0.600000 0.000000
0.367270 -0.599752 -0.000565 0.000000 0.500000 0.500000
0.158759 0.371497 0.068888 0.600000 0.000000 0.300000
-0.558220 -0.202894 0.069890 0.600000 0.000000 0.300000
0.456432 0.345595 0.069890 0.600000 0.000000 0.300000
-0.233270 -0.283648 -0.055635 0.300000 0.600000 0.000000
-0.063746 -0.063535 -0.134022 0.500000 0.000000 0.500000
-0.009853 0.028633 -0.098884 0.300000 0.600000 0.000000
-0.363898 -0.600743 0.018395 0.000000 0.500000 0.500000
-0.375733 -0.137076 -0.098884 0.300000 0.600000 0.000000
0.015944 -0.269198 -0.062086 0.300000 0.600000 0.000000
-0.732999 0.527612 0.073650 0.600000 0.000000 0.300000
-0.149905 0.151788 -0.098884 0.300000 0.600000 0.000000
-0.079270 -0.368384 -0.158259 0.500000 0.000000 0.500000
0.395664 0.386733 0.068888 0.600000 0.000000 0.300000
-0.006665 -0.599743 0.059409 0.000000 0.500000 0.500000
-0.742103 -0.035791 -0.019754 0.300000 0.600000 0.000000
-0.030931 -0.646263 -0.208916 0.000000 0.500000 0.500000
0.757215 -0.430639 0.054906 0.300000 0.600000 0.000000
-0.808136 -0.073103 0.054994 0.300000 0.600000 0.000000
-0.516743 -0.076524 -0.098884 0.300000 0.600000 0.000000
0.630937 0.391114 -0.064171 0.300000 0.600000 0.000000
-0.418508 0.264126 0.068888 0.600000 0.000000 0.300000
-0.306238 0.160134 0.068888 0.600000 0.000000 0.300000
-0.264263 -0.308355 -0.044606 0.300000 0.600000 0.000000
0.684214 -0.014428 -0.040167 0.300000 0.600000 0.000000
0.210959 0.135967 0.069890 0.600000 0.000000 0.300000
0.019814 -0.462921 -0.111564 0.500000 0.000000 0.500000
0.702721 -0.059504 0.069805 0.300000 0.600000 0.000000
0.563677 0.026652 0.068888 0.600000 0.000000 0.300000
-0.299439 -0.101432 0.069815 0.600000 0.000000 0.300000
0.434031 0.422785 -0.091649 0.300000 0.600000 0.000000
-0.807777 0.423990 0.018596 0.300000 0.600000 0.000000
-0.440398 0.011276 0.069890 0.600000 0.000000 0.300000
-0.442977 -0.646263 0.060128 0.000000 0.500000 0.500000
0.147405 0.040467 0.068888 0.600000 0.000000 0.300000
-0.547949 -0.211394 -0.087908 0.300000 0.600000 0.000000
-0.652300 0.294945 -0.060205 0.300000 0.600000 0.000000
0.735989 0.401778 0.075392 0.300000 0.600000 0.000000
-0.441737 0.092713 -0.098884 0.300000 0.600000 0.000000
0.795039 0.585407 0.053375 0.300000 0.600000 0.000000
-0.066162 0.016509 -0.134384 0.500000 0.000000 0.500000
0.412889 -0.186751 -0.096138 0.300000 0.600000 0.000000
0.379911 0.446172 0.068888 0.600000 0.000000 0.300000
0.240896 -0.297269 -0.049555 0.300000 0.600000 0.000000
-0.265073 0.322530 0.068888 0.600000 0.000000 0.300000
0.031464 -0.598749 -0.003930 0.000000 0.500000 0.500000
-0.732639 0.046759 -0.024017 0.300000 0.600000 0.000000
-0.457692 -0.283291 -0.055795 0.300000 0.600000 0.000000
-0.723890 0.245984 0.068877 0.600000 0.000000 0.300000
0.159921 -0.078968 -0.098884 0.300000 0.600000 0.000000
-0.803127 -0.126775 0.009324 0.300000 0.600000 0.000000
-0.616035 0.357032 -0.076552 0.300000 0.600000 0.000000
-0.179256 -0.646263 -0.005170 0.000000 0.500000 0.500000
0.126096 0.375478 0.068888 0.600000 0.000000 0.300000
-0.566989 -0.067142 -0.096218 0.300000 0.600000 0.000000
0.649021 0.290734 -0.056020 0.300000 0.600000 0.000000
0.402458 0.289921 0.069890 0.600000 0.000000 0.300000
0.141210 -0.283582 -0.055665 0.300000 0.600000 0.000000
-0.081863 -0.089400 0.068888 0.600000 0.000000 0.300000
0.084506 -0.646263 -0.028133 0.000000 0.500000 0.500000
-0.362913 0.245792 -0.098884 0.300000 0.600000 0.000000
0.380486 -0.646263 0.047505 0.000000 0.500000 0.500000
0.369040 -0.076084 -0.098884 0.300000 0.600000 0.000000
-0.164874 0.326600 -0.098884 0.300000 0.600000 0.000000
-0.035710 -0.375150 -0.014797 0.300000 0.600000 0.000000
-0.191158 -0.600330 -0.057565 0.000000 0.500000 0.500000
-0.162902 0.326813 0.068888 0.600000 0.000000 0.300000
-0.484167 0.386290 0.068888 0.600000 0.000000 0.300000
0.295559 0.213547 0.069890 0.600000 0.000000 0.300000
-0.283841 -0.159336 0.068888 0.600000 0.000000 0.300000
0.014465 0.066992 -0.098884 0.300000 0.600000 0.000000
-0.580809 0.338784 -0.092118 0.300000 0.600000 0.000000
0.282024 -0.325997 -0.036730 0.300000 0.600000 0.000000
-0.055316 0.495226 -0.052893 0.300000 0.600000 0.000000
0.115614 -0.429675 0.062967 0.300000 0.600000 0.000000
-0.110925 -0.619061 -0.265106 0.000000 0.500000 0.500000
-0.606162 0.085648 -0.081001 0.300000 0.600000 0.000000
-0.712088 0.132982 -0.033275 0.300000 0.600000 0.000000
-0.550650 -0.416992 0.078167 0.300000 0.600000 0.000000
-0.446968 -0.009262 0.069890 0.600000 0.000000 0.300000
-0.755168 -0.248506 0.077064 0.600000 0.000000 0.300000
-0.394611 -0.626092 0.217477 0.000000 0.500000 0.500000
-0.335796 -0.164070 -0.098644 0.300000 0.600000 0.000000
0.597309 0.173409 -0.079311 0.300000 0.600000 0.000000
-0.773128 0.442535 -0.005786 0.300000 0.600000 0.000000
0.606423 0.214129 -0.075198 0.300000 0.600000 0.000000
-0.099250 0.192402 0.068888 0.600000 0.000000 0.300000
0.354329 -0.600665 0.097626 0.000000 0.500000 0.500000
-0.578665 -0.333373 -0.033437 0.300000 0.600000 0.000000
0.060516 -0.534775 -0.061848 0.500000 0.000000 0.500000
0.401401 -0.206307 0.068888 0.600000 0.000000 0.300000
0.016929 0.200325 0.068888 0.600000 0.000000 0.300000
0.184392 0.587338 -0.002833 0.300000 0.600000 0.000000
0.012646 -0.377292 -0.137547 0.500000 0.000000 0.500000
-0.339689 0.385388 0.068888 0.600000 0.000000 0.300000
-0.569254 -0.129463 0.069890 0.600000 0.000000 0.300000
-0.551534 -0.370966 -0.016661 0.300000 0.600000 0.000000
0.540758 0.526903 0.071113 0.600000 0.000000 0.300000
-0.028786 -0.115991 0.068888 0.600000 0.000000 0.300000
-0.742661 0.208348 -0.019503 0.300000 0.600000 0.000000
-0.701591 0.200388 0.068887 0.600000 0.000000 0.300000
-0.019507 0.246944 -0.098884 0.300000 0.600000 0.000000
0.773922 0.083101 0.000257 0.300000 0.600000 0.000000
-0.073911 0.306392 -0.098884 0.300000 0.600000 0.000000
-0.455241 0.178516 0.068888 0.600000 0.000000 0.300000
-0.042743 -0.599968 0.097592 0.000000 0.500000 0.500000
-0.544965 0.278142 0.068888 0.600000 0.000000 0.300000
0.139761 -0.277274 0.068888 0.600000 0.000000 0.300000
0.443689 0.562972 -0.016077 0.300000 0.600000 0.000000
0.698427 -0.283967 -0.033752 0.300000 0.600000 0.000000
0.654893 -0.144784 0.068888 0.600000 0.000000 0.300000
-0.016805 -0.250533 0.068888 0.600000 0.000000 0.300000
-0.147085 -0.152803 0.068888 0.600000 0.000000 0.300000
0.013716 -0.503850 -0.082707 0.500000 0.000000 0.500000
0.304139 0.605586 0.067560 0.300000 0.600000 0.000000
0.209092 -0.139507 0.068888 0.600000 0.000000 0.300000
0.550000 0.363911 -0.096876 0.300000 0.600000 0.000000
0.338815 -0.381435 -0.011991 0.300000 0.600000 0.000000
0.501886 -0.428937 0.013721 0.300000 0.600000 0.000000
-0.805067 0.449652 0.069760 0.300000 0.600000 0.000000
0.038771 -0.428706 0.066026 0.300000 0.600000 0.000000
0.265841 0.319525 -0.098884 0.300000 0.600000 0.000000
0.565881 -0.041728 -0.092812 0.300000 0.600000 0.000000
-0.080814 -0.458261 -0.139413 0.500000 0.000000 0.500000
-0.061460 -0.367832 -0.018057 0.300000 0.600000 0.000000
-0.765755 0.266434 -0.009112 0.300000 0.600000 0.000000
0.092514 -0.646041 -0.196310 0.000000 0.500000 0.500000
0.333098 -0.413374 0.078172 0.300000 0.600000 0.000000
-0.355412 0.331232 0.068888 0.600000 0.000000 0.300000
-0.064220 -0.304482 -0.046335 0.300000 0.600000 0.000000
0.395165 -0.168414 0.068888 0.600000 0.000000 0.300000
-0.469939 0.397477 -0.097914 0.300000 0.600000 0.000000
0.068877 0.161374 0.068926 0.600000 0.000000 0.300000
0.005009 0.040146 -0.133945 0.500000 0.000000 0.500000
-0.173196 -0.146273 0.068888 0.600000 0.000000 0.300000
0.103915 -0.601041 -0.198756 0.000000 0.500000 0.500000
-0.233399 -0.646263 -0.012152 0.000000 0.500000 0.500000
-0.511050 -0.241734 -0.074354 0.300000 0.600000 0.000000
0.694909 -0.273765 0.068880 0.600000 0.000000 0.300000
0.459097 0.526855 -0.035704 0.300000 0.600000 0.000000
-0.028868 -0.068738 -0.158259 0.500000 0.000000 0.500000
-0.543156 0.160705 0.068888 0.600000 0.000000 0.300000
-0.141666 0.120109 0.068988 0.600000 0.000000 0.300000
-0.487793 -0.155901 0.069890 0.600000 0.000000 0.300000
-0.476608 0.337854 0.068888 0.600000 0.000000 0.300000
-0.264010 0.585785 0.077736 0.300000 0.600000 0.000000
-0.808225 -0.098565 0.043769 0.300000 0.600000 0.000000
-0.199183 -0.338893 0.069995 0.600000 0.000000 0.300000
-0.103612 0.427782 0.068888 0.600000 0.000000 0.300000
-0.322377 -0.277103 -0.058557 0.300000 0.600000 0.000000
0.664870 0.329472 0.069890 0.600000 0.000000 0.300000
-0.095143 -0.646220 -0.165911 0.000000 0.500000 0.500000
0.381605 -0.430741 0.039800 0.300000 0.600000 0.000000
-0.117878 -0.085763 -0.098884 0.300000 0.600000 0.000000
0.682075 0.030926 0.068887 0.600000 0.000000 0.300000
0.456970 0.266887 -0.098884 0.300000 0.600000 0.000000
-0.087373 -0.599910 -0.115332 0.000000 0.500000 0.500000
0.093564 -0.646263 -0.078238 0.000000 0.500000 0.500000
-0.313175 0.343953 0.068888 0.600000 0.000000 0.300000
-0.261381 0.374896 0.068888 0.600000 0.000000 0.300000
0.253291 0.159167 0.069890 0.600000 0.000000 0.300000
-0.425487 -0.618249 0.201553 0.000000 0.500000 0.500000
-0.353589 0.029024 0.069890 0.600000 0.000000 0.300000
-0.030947 -0.453790 -0.142489 0.500000 0.000000 0.500000
-0.261677 0.551383 -0.022375 0.300000 0.600000 0.000000
0.724306 -0.430172 0.017145 0.300000 0.600000 0.000000
0.271066 0.403150 -0.097267 0.300000 0.600000 0.000000
-0.124828 0.078686 0.069776 0.600000 0.000000 0.300000
0.590744 0.078883 -0.082271 0.300000 0.600000 0.000000
0.320533 0.458875 -0.072649 0.300000 0.600000 0.000000
0.731223 -0.149241 -0.018991 0.300000 0.600000 0.000000
-0.566296 0.206291 -0.096322 0.300000 0.600000 0.000000
-0.412389 -0.607799 0.187783 0.000000 0.500000 0.500000
0.131125 -0.646263 -0.117528 0.000000 0.500000 0.500000
0.074781 0.359015 0.068888 0.600000 0.000000 0.300000
0.561172 0.486574 -0.057595 0.300000 0.600000 0.000000
-0.798560 0.316263 0.006007 0.300000 0.600000 0.000000
0.458332 -0.403781 0.078486 0.300000 0.600000 0.000000
-0.134113 -0.122127 0.068888 0.600000 0.000000 0.300000
0.409259 -0.430379 0.020495 0.300000 0.600000 0.000000
0.476692 0.327865 -0.098884 0.300000 0.600000 0.000000
0.704390 -0.100446 0.070053 0.300000 0.600000 0.000000
0.075761 -0.401354 0.078193 0.300000 0.600000 0.000000
0.781047 0.184546 0.075060 0.300000 0.600000 0.000000
-0.159283 -0.058921 -0.098884 0.300000 0.600000 0.000000
0.054357 -0.250833 -0.134119 0.500000 0.000000 0.500000
0.524696 0.075513 -0.098829 0.300000 0.600000 0.000000
0.319562 0.255005 0.069890 0.600000 0.000000 0.300000
0.782001 -0.384353 0.004157 0.300000 0.600000 0.000000
0.367998 0.040700 -0.098884 0.300000 0.600000 0.000000
0.795648 0.525354 0.026755 0.300000 0.600000 0.000000
0.267218 0.607927 0.012427 0.300000 0.600000 0.000000
-0.601469 0.328499 -0.083116 0.300000 0.600000 0.000000
0.178738 0.190881 -0.098884 0.300000 0.600000 0.000000
-0.340444 -0.120765 0.069889 0.600000 0.000000 0.300000
-0.200384 -0.600006 0.048605 0.000000 0.500000 0.500000
-0.328237 -0.278550 0.068888 0.600000 0.000000 0.300000
-0.546532 -0.235652 -0.077069 0.300000 0.600000 0.000000
0.306954 0.163891 -0.098884 0.300000 0.600000 0.000000
-0.541463 0.385620 0.068888 0.600000 0.000000 0.300000
-0.473166 -0.199701 0.069889 0.600000 0.000000 0.300000
0.048419 -0.646247 0.074590 0.000000 0.500000 0.500000
0.487346 -0.000260 -0.098884 0.300000 0.600000 0.000000
-0.201483 -0.261153 -0.065702 0.300000 0.600000 0.000000
0.007493 0.468881 -0.067210 0.300000 0.600000 0.000000
0.147363 0.511852 0.068880 0.600000 0.000000 0.300000
0.073737 -0.118563 -0.098884 0.300000 0.600000 0.000000
-0.724243 0.099552 -0.027797 0.300000 0.600000 0.000000
0.015399 -0.074274 -0.133644 0.500000 0.000000 0.500000
-0.492325 0.032023 0.069890 0.600000 0.000000 0.300000
-0.506787 0.487349 -0.057174 0.300000 0.600000 0.000000
0.141906 -0.240572 -0.074870 0.300000 0.600000 0.000000
-0.728011 0.186562 0.069117 0.600000 0.000000 0.300000
0.431380 -0.112951 0.068888 0.600000 0.000000 0.300000
0.198222 0.060292 0.068888 0.600000 0.000000 0.300000
-0.789537 0.155464 0.078175 0.300000 0.600000 0.000000
0.058553 0.073537 0.068904 0.600000 0.000000 0.300000
0.764526 -0.351682 0.078535 0.300000 0.600000 0.000000
0.275689 -0.110205 -0.098884 0.300000 0.600000 0.000000
0.572433 0.611021 0.033743 0.300000 0.600000 0.000000
-0.458707 0.461053 -0.071465 0.300000 0.600000 0.000000
0.772603 0.350120 -0.000347 0.300000 0.600000 0.000000
0.623892 -0.154601 0.068888 0.600000 0.000000 0.300000
-0.321582 0.040131 -0.098884 0.300000 0.600000 0.000000
-0.444567 -0.016088 -0.098884 0.300000 0.600000 0.000000
-0.185738 -0.600406 0.093967 0.000000 0.500000 0.500000
0.098112 -0.524701 -0.093567 0.500000 0.000000 0.500000
0.130906 0.125613 0.069889 0.600000 0.000000 0.300000
-0.011540 -0.503850 -0.083167 0.500000 0.000000 0.500000
-0.428463 -0.286152 0.068888 0.600000 0.000000 0.300000
0.375363 0.237830 0.069890 0.600000 0.000000 0.300000
-0.462998 0.499222 0.068886 0.600000 0.000000 0.300000
0.456040 -0.054849 0.068888 0.600000 0.000000 0.300000
0.339216 0.047494 0.068888 0.600000 0.000000 0.300000
0.739639 -0.204506 0.076286 0.300000 0.600000 0.000000
-0.127129 -0.093266 0.068888 0.600000 0.000000 0.300000
-0.411364 -0.266757 -0.063180 0.300000 0.600000 0.000000
0.530246 0.456764 -0.073796 0.300000 0.600000 0.000000
-0.538088 0.186694 0.068888 0.600000 0.000000 0.300000
0.023247 0.273439 -0.098884 0.300000 0.600000 0.000000
-0.110759 -0.610062 -0.215508 0.000000 0.500000 0.500000
-0.138215 0.429512 0.068888 0.600000 0.000000 0.300000
0.588231 -0.092015 0.068888 0.600000 0.000000 0.300000
0.098897 -0.425178 0.008795 0.300000 0.600000 0.000000
0.013219 -0.024129 -0.098884 0.300000 0.600000 0.000000
0.177916 -0.173348 0.068888 0.600000 0.000000 0.300000
-0.318112 0.282418 0.068888 0.600000 0.000000 0.300000
-0.064808 -0.600029 0.035760 0.000000 0.500000 0.500000
-0.516139 0.247822 -0.098884 0.300000 0.600000 0.000000
-0.690569 -0.144273 0.069890 0.600000 0.000000 0.300000
0.551656 0.545293 0.074312 0.600000 0.000000 0.300000
-0.709395 -0.373774 -0.015410 0.300000 0.600000 0.000000
-0.370443 0.116263 -0.098884 0.300000 0.600000 0.000000
0.720562 -0.173601 0.072623 0.300000 0.600000 0.000000
0.772246 -0.256959 -0.000498 0.300000 0.600000 0.000000
0.539243 -0.338704 -0.031057 0.300000 0.600000 0.000000
-0.492125 0.605610 0.069031 0.300000 0.600000 0.000000
-0.260382 0.191478 -0.098884 0.300000 0.600000 0.000000
-0.321863 0.221923 -0.098884 0.300000 0.600000 0.000000
-0.238653 -0.017958 0.069890 0.600000 0.000000 0.300000
0.072985 -0.415740 -0.133330 0.500000 0.000000 0.500000
0.534572 0.207334 -0.098687 0.300000 0.600000 0.000000
-0.592163 0.487548 -0.057066 0.300000 0.600000 0.000000
-0.033661 -0.012860 -0.158259 0.500000 0.000000 0.500000
0.573683 0.024424 -0.089952 0.300000 0.600000 0.000000
0.653719 0.519014 -0.039959 0.300000 0.600000 0.000000
-0.036999 -0.638381 0.107665 0.000000 0.500000 0.500000
0.486542 0.261584 0.069890 0.600000 0.000000 0.300000
-0.093487 0.006549 0.069456 0.600000 0.000000 0.300000
0.292580 -0.383488 -0.011075 0.300000 0.600000 0.000000
-0.405599 0.549393 0.075132 0.600000 0.000000 0.300000
0.110004 0.543117 -0.026868 0.300000 0.600000 0.000000
-0.592055 -0.348703 -0.026593 0.300000 0.600000 0.000000
-0.352268 0.074503 0.069856 0.600000 0.000000 0.300000
-0.097078 0.500653 0.068885 0.600000 0.000000 0.300000
-0.757695 0.380972 -0.012744 0.300000 0.600000 0.000000
0.188518 0.088766 -0.098884 0.300000 0.600000 0.000000
0.502160 0.021587 0.068888 0.600000 0.000000 0.300000
0.014292 -0.432139 -0.130578 0.500000 0.000000 0.500000
-0.096020 -0.147838 -0.158231 0.500000 0.000000 0.500000
-0.799171 0.561317 0.006320 0.300000 0.600000 0.000000
-0.267818 -0.600743 -0.023508 0.000000 0.500000 0.500000
0.061720 -0.499484 -0.111035 0.500000 0.000000 0.500000
-0.492547 -0.296643 0.068888 0.600000 0.000000 0.300000
0.022428 -0.646263 -0.140786 0.000000 0.500000 0.500000
-0.045464 -0.193479 -0.158259 0.500000 0.000000 0.500000
0.402404 0.334184 -0.098884 0.300000 0.600000 0.000000
-0.549060 0.149481 -0.098655 0.300000 0.600000 0.000000
0.570420 -0.268654 -0.062329 0.300000 0.600000 0.000000
0.692578 -0.225913 0.068881 0.600000 0.000000 0.300000
0.187753 -0.430656 0.053117 0.300000 0.600000 0.000000
0.057536 0.120928 0.069534 0.600000 0.000000 0.300000
-0.805266 -0.144898 0.069122 0.300000 0.600000 0.000000
-0.145321 -0.285381 -0.054862 0.300000 0.600000 0.000000
-0.808235 0.438207 0.038312 0.300000 0.600000 0.000000
0.019258 0.540738 0.073477 0.600000 0.000000 0.300000
-0.025134 0.068069 -0.098884 0.300000 0.600000 0.000000
-0.505741 0.586299 -0.003400 0.300000 0.600000 0.000000
-0.298839 -0.600030 0.152964 0.000000 0.500000 0.500000
0.791660 0.018219 0.011240 0.300000 0.600000 0.000000
0.011230 0.533901 -0.031875 0.300000 0.600000 0.000000
-0.725908 0.031719 0.069875 0.600000 0.000000 0.300000
-0.081106 -0.227189 0.068888 0.600000 0.000000 0.300000
-0.031384 -0.646263 -0.163009 0.000000 0.500000 0.500000
0.747600 0.300010 0.077295 0.300000 0.600000 0.000000
-0.044307 -0.346557 -0.158194 0.500000 0.000000 0.500000
0.625699 0.174063 -0.066541 0.300000 0.600000 0.000000
-0.192827 0.230105 0.068888 0.600000 0.000000 0.300000
-0.002207 -0.621559 0.112683 0.000000 0.500000 0.500000
-0.110661 0.256370 -0.098884 0.300000 0.600000 0.000000
0.354025 -0.003088 -0.098884 0.300000 0.600000 0.000000
0.053736 -0.556721 -0.071621 0.500000 0.000000 0.500000
-0.164454 -0.010256 0.069889 0.600000 0.000000 0.300000
-0.242314 0.207585 -0.098884 0.300000 0.600000 0.000000
-0.699117 0.042692 -0.039120 0.300000 0.600000 0.000000
0.093723 0.610868 0.030242 0.300000 0.600000 0.000000
0.083037 0.129002 0.069813 0.600000 0.000000 0.300000
-0.302422 -0.425079 0.008666 0.300000 0.600000 0.000000
0.442973 0.610172 0.019478 0.300000 0.600000 0.000000
-0.666009 0.372645 -0.054029 0.300000 0.600000 0.000000
-0.324798 -0.618995 0.185965 0.000000 0.500000 0.500000
0.402672 0.121635 -0.098884 0.300000 0.600000 0.000000
0.438887 0.103921 0.069482 0.600000 0.000000 0.300000
-0.774309 0.015583 0.077699 0.300000 0.600000 0.000000
0.442736 0.495121 0.068888 0.600000 0.000000 0.300000
-0.590952 0.599522 0.073143 0.300000 0.600000 0.000000
-0.645241 -0.217521 0.069890 0.600000 0.000000 0.300000
-0.340378 -0.096191 0.069890 0.600000 0.000000 0.300000
0.122489 -0.121478 0.068888 0.600000 0.000000 0.300000
0.691319 0.162292 0.069885 0.600000 0.000000 0.300000
-0.427059 0.085930 0.069638 0.600000 0.000000 0.300000
0.361213 -0.236234 -0.076809 0.300000 0.600000 0.000000
-0.346491 -0.646263 0.090930 0.000000 0.500000 0.500000
-0.446425 0.429304 -0.088500 0.300000 0.600000 0.000000
-0.704114 0.522993 -0.033018 0.300000 0.600000 0.000000
-0.288066 0.362298 0.068888 0.600000 0.000000 0.300000
0.569955 0.589149 -0.001847 0.300000 0.600000 0.000000
0.172254 -0.280889 0.068888 0.600000 0.000000 0.300000
-0.550394 0.251759 -0.098636 0.300000 0.600000 0.000000
-0.086242 0.029743 -0.098884 0.300000 0.600000 0.000000
0.024275 -0.279109 0.068888 0.600000 0.000000 0.300000
-0.377554 -0.272142 -0.060772 0.300000 0.600000 0.000000
0.700961 0.346735 0.070473 0.300000 0.600000 0.000000
-0.126458 0.324637 -0.098884 0.300000 0.600000 0.000000
0.649618 -0.321849 0.068883 0.600000 0.000000 0.300000
-0.425433 0.605770 0.068526 0.300000 0.600000 0.000000
-0.552853 -0.028328 0.069890 0.600000 0.000000 0.300000
-0.161130 0.272269 -0.098884 0.300000 0.600000 0.000000
0.374339 0.360492 0.068888 0.600000 0.000000 0.300000
-0.737079 -0.027405 0.071605 0.600000 0.000000 0.300000
0.513930 0.264815 -0.098884 0.300000 0.600000 0.000000
-0.337929 -0.378300 -0.013391 0.300000 0.600000 0.000000
0.025902 -0.030227 0.068888 0.600000 0.000000 0.300000
-0.058444 -0.509597 -0.104060 0.500000 0.000000 0.500000
0.355265 0.551936 0.075527 0.600000 0.000000 0.300000
0.224027 -0.646263 0.122579 0.000000 0.500000 0.500000
0.349483 -0.646263 0.174288 0.000000 0.500000 0.500000
0.253640 0.096897 -0.098884 0.300000 0.600000 0.000000
0.469331 0.114184 -0.098884 0.300000 0.600000 0.000000
-0.377740 0.181784 -0.098884 0.300000 0.600000 0.000000
0.569259 0.447918 0.069396 0.600000 0.000000 0.300000
-0.179064 -0.351043 0.071789 0.600000 0.000000 0.300000
-0.643174 0.022589 0.069890 0.600000 0.000000 0.300000
-0.087338 0.071911 0.069890 0.600000 0.000000 0.300000
-0.642790 0.218114 -0.064500 0.300000 0.600000 0.000000
0.145461 -0.599743 -0.058627 0.000000 0.500000 0.500000
-0.372591 0.399746 0.068888 0.600000 0.000000 0.300000
0.664716 -0.069257 -0.048950 0.300000 0.600000 0.000000
-0.173200 0.607822 0.062036 0.300000 0.600000 0.000000
-0.389926 -0.644384 0.208531 0.000000 0.500000 0.500000
-0.076077 -0.599860 -0.002046 0.000000 0.500000 0.500000
0.620846 0.587889 0.077262 0.300000 0.600000 0.000000
-0.034561 -0.226775 -0.158244 0.500000 0.000000 0.500000
-0.600817 0.433099 0.068888 0.600000 0.000000 0.300000
0.038233 -0.599926 -0.159603 0.000000 0.500000 0.500000
-0.182831 -0.646263 -0.057024 0.000000 0.500000 0.500000
0.700421 0.474081 0.070402 0.300000 0.600000 0.000000
0.786222 -0.281865 0.071778 0.300000 0.600000 0.000000
0.041858 -0.646263 -0.180613 0.000000 0.500000 0.500000
0.628192 0.147385 -0.065413 0.300000 0.600000 0.000000
0.268997 0.079849 0.069024 0.600000 0.000000 0.300000
0.458656 -0.329830 -0.035019 0.300000 0.600000 0.000000
0.500615 0.336060 0.069890 0.600000 0.000000 0.300000
-0.163115 -0.388658 0.078280 0.300000 0.600000 0.000000
0.056289 0.594316 0.000986 0.300000 0.600000 0.000000
-0.684920 0.151857 -0.045515 0.300000 0.600000 0.000000
0.405647 -0.646263 0.084302 0.000000 0.500000 0.500000
0.365138 -0.617206 -0.034698 0.000000 0.500000 0.500000
-0.725836 0.485376 -0.027079 0.300000 0.600000 0.000000
0.529584 -0.069254 -0.098759 0.300000 0.600000 0.000000
0.540222 0.575805 -0.009103 0.300000 0.600000 0.000000
0.531417 0.606456 0.010399 0.300000 0.600000 0.000000
0.259774 -0.293325 0.068888 0.600000 0.000000 0.300000
0.557594 -0.369161 0.075100 0.600000 0.000000 0.300000
0.032527 -0.111726 -0.098884 0.300000 0.600000 0.000000
0.060584 -0.354080 0.072286 0.600000 0.000000 0.300000
0.761871 0.182305 -0.005174 0.300000 0.600000 0.000000
0.166292 0.345499 0.068888 0.600000 0.000000 0.300000
-0.692977 0.295985 -0.041886 0.300000 0.600000 0.000000
0.411909 -0.046048 -0.098884 0.300000 0.600000 0.000000
-0.031219 -0.458430 -0.114477 0.500000 0.000000 0.500000
-0.422511 -0.130892 0.069890 0.600000 0.000000 0.300000
-0.099268 0.179952 -0.098884 0.300000 0.600000 0.000000
-0.004416 0.028686 -0.158259 0.500000 0.000000 0.500000
0.794713 0.200362 0.049954 0.300000 0.600000 0.000000
-0.505697 0.270515 0.068888 0.600000 0.000000 0.300000
-0.234297 -0.600430 -0.004488 0.000000 0.500000 0.500000
-0.508586 0.421966 0.068888 0.600000 0.000000 0.300000
-0.398814 -0.600737 -0.001417 0.000000 0.500000 0.500000
0.239476 0.070385 -0.098884 0.300000 0.600000 0.000000
0.609354 -0.219901 -0.072961 0.300000 0.600000 0.000000
-0.117004 0.508985 0.068881 0.600000 0.000000 0.300000
-0.058715 0.203229 -0.098884 0.300000 0.600000 0.000000
-0.655778 -0.019440 0.069890 0.600000 0.000000 0.300000
0.488017 0.478848 0.068888 0.600000 0.000000 0.300000
0.018191 -0.430218 0.061248 0.300000 0.600000 0.000000
-0.498437 0.566835 0.078435 0.600000 0.000000 0.300000
0.048652 -0.373732 -0.158259 0.500000 0.000000 0.500000
0.150939 -0.599751 0.091971 0.000000 0.500000 0.500000
0.694138 0.341360 -0.035696 0.300000 0.600000 0.000000
0.029547 -0.323058 -0.137011 0.500000 0.000000 0.500000
0.101896 -0.477232 -0.123471 0.500000 0.000000 0.500000
0.122138 -0.646263 0.063624 0.000000 0.500000 0.500000
-0.448914 0.361695 -0.098884 0.300000 0.600000 0.000000
0.477974 0.355698 -0.098884 0.300000 0.600000 0.000000
0.499324 0.091391 -0.098884 0.300000 0.600000 0.000000
-0.166061 -0.624162 0.113624 0.000000 0.500000 0.500000
0.519749 0.035868 -0.098884 0.300000 0.600000 0.000000
0.225785 -0.265331 -0.063822 0.300000 0.600000 0.000000
0.130081 0.573109 0.078056 0.300000 0.600000 0.000000
0.643326 0.312730 -0.058585 0.300000 0.600000 0.000000
0.526728 -0.244050 0.068888 0.600000 0.000000 0.300000
-0.150324 -0.645781 0.092919 0.000000 0.500000 0.500000
0.204912 0.391106 0.068888 0.600000 0.000000 0.300000
0.024750 0.552389 -0.021829 0.300000 0.600000 0.000000
0.264456 0.482073 0.068888 0.600000 0.000000 0.300000
0.700673 0.171707 -0.032752 0.300000 0.600000 0.000000
0.059666 -0.171362 -0.133764 0.500000 0.000000 0.500000
0.432240 0.219328 -0.098884 0.300000 0.600000 0.000000
