ply
format ascii 1.0
element vertex 1268
property float x
property float y
property float z
property uchar red
property uchar green
property uchar blue
end_header
0.239824 -0.411933 0.076278 76 153 0
0.577343 0.082828 0.067633 153 0 76
0.294268 -0.149347 0.067633 153 0 76
-0.217977 0.586628 -0.000690 76 153 0
0.712876 -0.132403 0.067633 76 153 0
0.011124 -0.159993 -0.135129 127 0 127
0.630697 -0.244385 -0.061848 76 153 0
-0.426042 0.422495 -0.089893 76 153 0
-0.743648 -0.428485 0.056071 76 153 0
-0.362047 -0.247432 0.067633 153 0 76
-0.268520 -0.370124 0.067633 153 0 76
0.572041 -0.136974 0.067633 153 0 76
-0.568604 -0.423591 0.076278 76 153 0
-0.119666 0.600303 0.006742 76 153 0
0.050035 -0.609608 -0.069264 0 127 127
0.197699 -0.307192 -0.042709 76 153 0
-0.435055 0.017231 0.067633 153 0 76
0.294700 0.289350 -0.096627 76 153 0
0.254651 -0.125238 0.067633 153 0 76
0.457494 0.321357 0.067633 153 0 76
-0.805979 0.400858 0.057885 76 153 0
0.455406 0.580107 -0.004234 76 153 0
0.581330 -0.125518 -0.084085 76 153 0
0.351842 -0.010277 0.067633 153 0 76
-0.631715 -0.394233 0.076278 76 153 0
0.180108 -0.601390 -0.093838 0 127 127
-0.578254 0.398245 0.067633 153 0 76
0.037664 -0.020192 -0.135129 127 0 127
-0.107733 -0.217179 -0.082894 76 153 0
-0.751371 0.482211 0.069273 153 0 76
0.793394 -0.255844 0.056341 76 153 0
0.785162 0.383609 0.007731 76 153 0
0.553932 -0.308882 0.067633 153 0 76
0.664010 0.360811 -0.046842 76 153 0
0.131594 0.026558 0.067633 153 0 76
-0.147174 -0.644616 -0.001408 0 127 127
-0.627722 0.608946 0.061046 76 153 0
0.193958 -0.601390 -0.001993 0 127 127
0.049173 0.528143 0.067633 153 0 76
-0.150556 -0.644616 -0.071892 0 127 127
0.269440 -0.328841 0.067633 153 0 76
0.532223 0.314522 0.067633 153 0 76
0.763074 0.036565 -0.002218 76 153 0
-0.379632 -0.601390 0.136447 0 127 127
0.306517 -0.420272 0.030059 76 153 0
0.047006 -0.373957 0.074765 153 0 76
0.327288 -0.417021 0.006321 76 153 0
0.642626 0.104803 -0.056474 76 153 0
-0.245537 0.444873 0.067633 153 0 76
0.002092 0.204545 -0.096627 76 153 0
0.127373 -0.192057 -0.094109 76 153 0
-0.120912 0.129659 -0.096627 76 153 0
-0.712494 0.481569 0.067633 153 0 76
0.784455 -0.067783 0.076278 76 153 0
0.353522 0.099956 0.067633 153 0 76
-0.352154 -0.137562 0.067633 153 0 76
0.049122 0.091692 -0.149438 127 0 127
0.366022 0.061473 -0.096627 76 153 0
-0.647791 0.236136 0.067633 153 0 76
0.042956 0.442097 -0.079240 76 153 0
-0.352567 0.180458 0.067633 153 0 76
0.096933 -0.369027 -0.015105 76 153 0
-0.805979 -0.187845 0.054402 76 153 0
0.793394 0.498567 0.046657 76 153 0
0.019723 -0.227471 -0.136508 127 0 127
0.575492 0.393757 0.067633 153 0 76
0.508161 -0.124739 0.067633 153 0 76
-0.672071 0.444913 -0.048880 76 153 0
-0.469168 0.031644 0.067633 153 0 76
0.745138 0.315257 0.076278 76 153 0
0.256757 -0.601390 0.146608 0 127 127
0.042277 -0.467898 -0.130794 127 0 127
-0.634910 0.092483 -0.065619 76 153 0
0.411970 -0.371414 -0.014039 76 153 0
0.144444 0.373009 -0.096627 76 153 0
-0.685679 0.397090 0.067633 153 0 76
-0.085445 -0.519492 -0.073783 127 0 127
-0.109037 -0.041954 -0.135129 127 0 127
-0.129006 0.494574 -0.050720 76 153 0
-0.038174 -0.429723 -0.156612 127 0 127
0.019068 0.600733 0.023793 76 153 0
-0.176470 0.357675 0.067633 153 0 76
-0.448576 0.608946 0.069825 76 153 0
-0.327766 -0.400660 0.076278 76 153 0
0.342891 -0.420272 0.029787 76 153 0
-0.364620 -0.282906 0.067633 153 0 76
-0.075143 -0.449235 -0.122163 127 0 127
0.395453 0.600733 0.030937 76 153 0
0.046647 -0.042686 -0.156612 127 0 127
0.723211 0.141547 0.067633 76 153 0
0.242603 0.002781 0.067633 153 0 76
-0.380125 -0.380271 -0.010085 76 153 0
-0.141072 0.563222 -0.013411 76 153 0
0.468171 0.606988 0.076278 76 153 0
0.312818 -0.641544 -0.056548 0 127 127
0.251781 -0.644616 -0.038309 0 127 127
0.151521 -0.644616 0.082330 0 127 127
-0.033594 0.092684 -0.120599 127 0 127
-0.060515 0.389421 -0.096627 76 153 0
0.563354 -0.074600 -0.092182 76 153 0
-0.805979 -0.263645 0.056448 76 153 0
-0.696549 0.608946 0.027731 76 153 0
0.605115 0.600733 0.049871 76 153 0
0.266505 -0.644616 0.022223 0 127 127
0.338211 0.057088 0.067633 153 0 76
-0.709902 0.537657 -0.027305 76 153 0
-0.484451 0.185324 0.067633 153 0 76
-0.199665 -0.254936 -0.066038 76 153 0
-0.396812 0.555640 0.076278 153 0 76
0.512109 -0.270377 -0.059145 76 153 0
0.663923 -0.038567 0.067633 153 0 76
-0.365748 -0.426711 0.076278 76 153 0
0.306823 -0.109353 0.067633 153 0 76
0.224463 -0.644616 0.000909 0 127 127
-0.356833 0.501705 -0.046844 76 153 0
-0.548217 0.020168 -0.096627 76 153 0
-0.286828 0.350274 0.067633 153 0 76
0.630820 0.586782 0.076278 76 153 0
-0.457772 -0.393775 0.076278 153 0 76
-0.106778 0.083968 -0.128748 127 0 127
-0.107729 -0.182257 -0.096627 76 153 0
-0.140535 -0.301290 -0.045344 76 153 0
-0.035153 -0.326209 -0.155854 127 0 127
0.228532 -0.136386 -0.096627 76 153 0
-0.040177 -0.468461 -0.130406 127 0 127
0.038942 0.074269 -0.155846 127 0 127
0.282162 -0.601390 0.143586 0 127 127
-0.463853 0.432027 0.067633 153 0 76
-0.106397 0.247914 0.067633 153 0 76
0.619244 0.237266 -0.067007 76 153 0
-0.636632 0.078965 0.067633 153 0 76
-0.682398 0.585289 -0.001418 76 153 0
-0.507077 0.246643 -0.096627 76 153 0
-0.803172 -0.113708 0.010175 76 153 0
0.441175 0.287549 -0.096627 76 153 0
0.037875 -0.232002 -0.076277 76 153 0
0.510693 0.590953 0.076278 76 153 0
-0.280516 -0.644616 -0.048752 0 127 127
0.107773 -0.615515 -0.149129 0 127 127
-0.096053 -0.362455 -0.156612 127 0 127
-0.733734 -0.010913 -0.021104 76 153 0
0.343332 0.439106 -0.080865 76 153 0
0.731853 0.048510 -0.016282 76 153 0
0.687644 0.381021 0.067633 153 0 76
0.640633 0.126745 -0.057372 76 153 0
0.477502 0.042778 -0.096627 76 153 0
0.032197 -0.286208 -0.135129 127 0 127
0.102689 -0.277063 0.067633 153 0 76
0.247373 0.606513 0.076278 76 153 0
0.281408 -0.644616 -0.010047 0 127 127
-0.325788 -0.361717 0.067633 153 0 76
-0.092359 -0.181010 -0.135129 127 0 127
0.012043 -0.032215 -0.096627 76 153 0
0.113914 -0.601390 -0.116776 0 127 127
-0.805979 0.234525 0.059226 76 153 0
0.157231 -0.005659 0.067633 153 0 76
0.017834 -0.506110 -0.082998 127 0 127
0.470896 0.354765 0.067633 153 0 76
-0.289164 -0.601390 0.104741 0 127 127
0.740227 0.511278 -0.012510 76 153 0
0.553062 -0.239044 0.067633 153 0 76
-0.047528 -0.206629 -0.135129 127 0 127
0.204069 -0.090544 0.067633 153 0 76
-0.089783 -0.043316 -0.156612 127 0 127
0.707526 0.234740 0.067633 153 0 76
-0.377802 -0.231732 0.067633 153 0 76
-0.055969 0.145565 0.067633 153 0 76
-0.040439 0.544882 0.067633 153 0 76
0.295327 -0.601390 0.035743 0 127 127
0.653471 -0.093759 0.067633 153 0 76
0.719404 -0.139061 -0.021889 76 153 0
0.177099 -0.173708 0.067633 153 0 76
0.701244 -0.264159 0.067633 76 153 0
0.105685 -0.365707 -0.156612 127 0 127
0.230847 -0.026101 -0.096627 76 153 0
-0.067799 -0.644616 -0.121775 0 127 127
0.249880 0.535879 -0.028271 76 153 0
0.581495 0.225562 -0.084011 76 153 0
-0.650537 -0.274884 -0.057133 76 153 0
-0.630608 -0.330714 0.067633 153 0 76
0.242932 -0.263581 -0.062179 76 153 0
-0.391275 0.033135 -0.096627 76 153 0
-0.792252 -0.227965 0.005256 76 153 0
-0.753855 0.594870 0.003789 76 153 0
-0.090322 -0.482545 -0.099225 127 0 127
-0.515590 0.348499 -0.096627 76 153 0
-0.725210 0.307229 0.067633 153 0 76
0.244439 -0.275821 0.067633 153 0 76
0.629055 -0.302875 0.067633 153 0 76
-0.742831 0.376768 -0.017006 76 153 0
-0.761215 0.337354 -0.008725 76 153 0
0.322402 -0.420272 0.064018 76 153 0
0.261095 0.419003 -0.091791 76 153 0
-0.682026 -0.401989 0.076278 76 153 0
0.102781 -0.112737 0.067633 153 0 76
0.279561 0.579769 0.076278 76 153 0
-0.611657 -0.311136 -0.040949 76 153 0
0.687150 -0.258920 -0.036418 76 153 0
-0.726125 0.515667 0.067633 153 0 76
0.036676 -0.644616 -0.039865 0 127 127
-0.384488 0.351546 -0.096627 76 153 0
0.772978 0.141021 0.076278 76 153 0
0.753377 0.480304 -0.006587 76 153 0
-0.030711 0.260681 0.067633 153 0 76
0.675890 -0.058484 0.067633 153 0 76
0.354881 -0.644616 0.117675 0 127 127
0.459603 0.453568 -0.073005 76 153 0
-0.368705 -0.228104 -0.078017 76 153 0
0.079582 -0.333651 -0.030898 76 153 0
-0.181161 0.052082 -0.096627 76 153 0
0.114752 -0.330212 0.067633 153 0 76
0.045852 0.289911 -0.096627 76 153 0
0.427064 0.324654 0.067633 153 0 76
0.616504 0.428732 0.067633 153 0 76
0.553966 0.255244 -0.096411 76 153 0
0.052925 -0.428485 0.018983 76 153 0
-0.357054 -0.176942 0.067633 153 0 76
-0.198698 -0.062651 -0.096627 76 153 0
-0.649569 0.309361 -0.059016 76 153 0
-0.080700 -0.080762 0.067633 153 0 76
-0.789672 0.284435 0.076278 76 153 0
0.679101 -0.185811 0.067633 153 0 76
0.771632 -0.428485 0.049793 76 153 0
-0.071781 -0.126103 -0.156612 127 0 127
0.683136 0.460016 -0.038227 76 153 0
0.091795 0.286511 -0.096627 76 153 0
-0.688295 -0.341231 -0.027514 76 153 0
-0.508020 0.459753 0.067633 153 0 76
0.654228 0.499856 0.067633 153 0 76
0.152226 0.478906 -0.059235 76 153 0
-0.476817 -0.644616 0.075501 0 127 127
-0.287484 -0.619086 0.167334 0 127 127
-0.575333 0.463794 0.067633 153 0 76
0.766813 0.303450 0.076278 76 153 0
-0.238987 0.018897 0.067633 153 0 76
0.050776 -0.627591 -0.279943 0 127 127
0.004299 -0.520250 -0.094744 127 0 127
0.229994 0.466524 -0.065964 76 153 0
-0.724250 -0.320867 -0.025376 76 153 0
-0.055298 -0.361395 -0.156612 127 0 127
-0.387557 0.152159 0.067633 153 0 76
-0.451688 0.331806 -0.096627 76 153 0
-0.129332 0.223105 -0.096627 76 153 0
-0.356245 -0.617231 -0.038761 0 127 127
-0.009994 0.536667 -0.027843 76 153 0
-0.656566 -0.028440 0.067633 153 0 76
-0.805979 -0.350940 0.025758 76 153 0
0.092551 -0.171959 -0.096627 76 153 0
0.009059 -0.013304 -0.156612 127 0 127
-0.418419 -0.608054 0.167573 0 127 127
-0.098864 0.417041 -0.092857 76 153 0
-0.339967 0.584716 -0.001730 76 153 0
0.732006 0.274819 -0.016213 76 153 0
0.071205 -0.473652 -0.126832 127 0 127
0.015354 0.224032 0.067633 153 0 76
-0.169000 -0.601390 0.058056 0 127 127
0.748790 -0.428485 0.060858 76 153 0
-0.758605 -0.291068 -0.009901 76 153 0
0.169519 -0.319769 -0.037095 76 153 0
0.655825 -0.400143 -0.001213 76 153 0
0.405223 0.332475 -0.096627 76 153 0
0.290425 -0.420518 0.007882 76 153 0
-0.021320 -0.601390 -0.194364 0 127 127
0.132669 0.273620 -0.096627 76 153 0
-0.430733 -0.323777 -0.035306 76 153 0
-0.649563 0.165838 0.067633 153 0 76
0.152128 -0.601390 -0.109151 0 127 127
0.033183 -0.562382 -0.044248 127 0 127
-0.316148 0.227916 -0.096627 76 153 0
0.703162 -0.067543 -0.029206 76 153 0
-0.457898 0.078108 0.067633 153 0 76
-0.786535 0.608946 0.020732 76 153 0
0.793394 0.094889 0.055607 76 153 0
-0.431487 0.356493 -0.096627 76 153 0
-0.691333 -0.304179 0.067633 153 0 76
-0.271106 0.371360 -0.096627 76 153 0
0.282737 0.536968 -0.027679 76 153 0
0.331179 0.127301 -0.096627 76 153 0
0.209255 -0.265935 0.067633 153 0 76
0.205359 -0.601390 0.087572 0 127 127
-0.157622 -0.282412 0.067633 153 0 76
-0.476389 0.344915 -0.096627 76 153 0
-0.097279 0.237899 -0.096627 76 153 0
0.051694 -0.601390 -0.140589 0 127 127
0.670773 -0.052122 -0.043796 76 153 0
-0.206419 0.078998 -0.096627 76 153 0
0.631561 0.373447 0.067633 153 0 76
-0.089699 -0.601390 -0.125484 0 127 127
-0.319732 0.345908 -0.096627 76 153 0
-0.629407 -0.420272 0.031200 76 153 0
0.038075 0.590958 0.076278 76 153 0
0.559340 -0.300113 -0.045870 76 153 0
0.093120 0.568065 0.076278 153 0 76
-0.397594 -0.644616 0.166724 0 127 127
-0.674417 -0.240359 -0.047823 76 153 0
-0.103294 -0.433002 -0.154824 127 0 127
-0.457715 -0.237394 0.067633 153 0 76
-0.662421 0.591139 0.076278 76 153 0
0.679120 0.516454 -0.038828 76 153 0
0.324522 0.354051 0.067633 153 0 76
-0.066737 0.114368 0.067633 153 0 76
0.684915 0.275932 0.067633 153 0 76
0.517965 0.449890 0.067633 153 0 76
-0.558783 0.304991 0.067633 153 0 76
-0.336036 -0.644616 0.149820 0 127 127
0.793394 0.206376 0.023489 76 153 0
0.536733 -0.208865 -0.086606 76 153 0
0.108183 -0.428485 0.030569 76 153 0
0.573709 0.196566 0.067633 153 0 76
-0.580389 0.382899 -0.090178 76 153 0
0.274706 -0.622032 0.163385 0 127 127
-0.587237 0.378738 0.067633 153 0 76
-0.204940 0.446379 0.067633 153 0 76
0.005716 0.575606 0.076278 76 153 0
0.371936 0.217255 0.067633 153 0 76
0.430075 -0.419265 0.076278 76 153 0
0.576162 -0.192645 -0.086413 76 153 0
-0.805979 -0.034933 0.058184 76 153 0
0.734908 -0.078451 -0.014906 76 153 0
-0.207474 0.000633 -0.096627 76 153 0
0.087740 0.177091 -0.096627 76 153 0
-0.331838 -0.213881 -0.084366 76 153 0
-0.129744 0.568578 0.076278 76 153 0
-0.259478 -0.364531 -0.017112 76 153 0
-0.376037 -0.351443 0.067633 153 0 76
0.020649 -0.244987 0.067633 153 0 76
0.385535 0.348281 0.067633 153 0 76
-0.109293 -0.622378 -0.215021 0 127 127
-0.392389 0.576841 -0.006009 76 153 0
0.213207 -0.343763 0.067633 153 0 76
0.007343 -0.601390 0.062546 0 127 127
-0.063483 0.087832 -0.151529 127 0 127
-0.325825 0.232319 0.067633 153 0 76
-0.178169 0.127731 0.067633 153 0 76
0.359957 0.348561 0.067633 153 0 76
-0.045677 -0.137554 -0.096627 76 153 0
-0.003627 0.538417 0.067633 153 0 76
0.058672 -0.175482 0.067633 153 0 76
0.571842 0.072288 -0.088359 76 153 0
-0.527013 -0.259187 -0.064141 76 153 0
-0.211059 -0.130075 -0.096627 76 153 0
0.159549 -0.644616 -0.029688 0 127 127
-0.606502 -0.164612 -0.078415 76 153 0
-0.557414 -0.356048 0.067633 153 0 76
-0.016213 -0.517713 -0.075008 127 0 127
0.399638 0.002387 -0.096627 76 153 0
-0.361992 -0.644616 0.093226 0 127 127
-0.040344 -0.404657 -0.156612 127 0 127
-0.225158 -0.092202 0.067633 153 0 76
0.474884 -0.137805 -0.096627 76 153 0
-0.449096 -0.607478 0.096277 0 127 127
-0.439902 0.004472 -0.096627 76 153 0
-0.004791 -0.601390 -0.167433 0 127 127
-0.747413 0.538089 -0.014942 76 153 0
-0.279139 0.168750 -0.096627 76 153 0
-0.049100 0.576358 -0.006272 76 153 0
0.027438 0.330063 -0.096627 76 153 0
-0.771340 -0.064831 0.076278 76 153 0
-0.387153 0.306754 0.067633 153 0 76
0.622198 0.095901 -0.065676 76 153 0
-0.065808 -0.320646 0.067633 153 0 76
-0.196158 0.167167 -0.096627 76 153 0
-0.757832 0.011074 -0.010249 76 153 0
-0.246899 -0.289395 0.067633 153 0 76
-0.471302 0.142404 -0.096627 76 153 0
-0.129850 0.527335 0.067633 153 0 76
-0.718613 0.093998 0.067633 153 0 76
-0.180260 0.358180 -0.096627 76 153 0
-0.113860 0.512997 0.067633 153 0 76
-0.310407 -0.146530 0.067633 153 0 76
0.499316 -0.174788 -0.096627 76 153 0
0.169211 0.495370 -0.050287 76 153 0
0.345561 -0.428485 0.050560 76 153 0
-0.319883 0.543806 -0.023963 76 153 0
0.401073 0.060936 0.067633 153 0 76
-0.232844 -0.633284 -0.094478 0 127 127
0.005009 0.600733 0.057075 76 153 0
0.339293 -0.382849 -0.008934 76 153 0
0.753817 0.079137 0.076278 76 153 0
-0.071014 -0.490344 -0.093854 127 0 127
-0.803539 -0.146638 0.076278 76 153 0
-0.487781 0.471464 0.067633 153 0 76
0.286510 -0.428485 0.059817 76 153 0
0.516446 0.160565 -0.096627 76 153 0
-0.386404 -0.601390 0.096786 0 127 127
-0.089186 -0.337041 -0.135129 127 0 127
0.043209 -0.077467 0.067633 153 0 76
-0.186761 -0.601390 0.119749 0 127 127
-0.164582 0.446649 0.067633 153 0 76
-0.566646 0.218529 -0.096369 76 153 0
0.381300 -0.357776 0.067633 153 0 76
-0.403368 -0.601557 0.130347 0 127 127
-0.805979 0.191020 0.074304 76 153 0
-0.295950 0.155043 0.067633 153 0 76
0.082027 -0.644616 -0.054996 0 127 127
-0.644607 -0.293682 -0.048741 76 153 0
0.154358 0.047492 0.067633 153 0 76
0.374313 -0.601390 0.093665 0 127 127
-0.654731 -0.428485 0.074304 76 153 0
0.314137 0.259560 0.067633 153 0 76
0.274087 -0.051314 0.067633 153 0 76
-0.225404 -0.305505 -0.043463 76 153 0
0.549449 0.472799 0.067633 153 0 76
-0.805979 0.213834 0.023998 76 153 0
0.592484 0.056084 -0.079061 76 153 0
0.739935 0.333190 0.067946 76 153 0
0.443363 0.522792 0.067633 153 0 76
0.145033 -0.412974 0.004514 76 153 0
0.590108 -0.069286 0.067633 153 0 76
-0.388509 0.394085 -0.096627 76 153 0
-0.782995 0.389535 0.076278 76 153 0
0.689457 -0.428485 0.070108 76 153 0
-0.123420 0.312600 -0.096627 76 153 0
0.436789 -0.131215 0.067633 153 0 76
0.078509 0.158112 0.067633 153 0 76
0.169957 -0.242414 -0.071628 76 153 0
-0.805979 0.348329 0.066304 76 153 0
0.169323 -0.644616 0.103893 0 127 127
-0.372027 -0.335407 -0.030114 76 153 0
-0.656408 0.600733 0.016435 76 153 0
0.146911 0.608946 0.064291 76 153 0
0.133663 -0.623932 0.099702 0 127 127
0.043233 -0.092653 -0.096627 76 153 0
0.394139 -0.040495 -0.096627 76 153 0
0.670094 -0.420272 0.015977 76 153 0
0.793394 -0.376333 0.022758 76 153 0
-0.164029 0.341492 -0.096627 76 153 0
0.529337 0.074824 0.067633 153 0 76
-0.433160 -0.644616 0.028625 0 127 127
-0.227346 0.136953 -0.096627 76 153 0
-0.507307 0.559937 -0.015197 76 153 0
-0.058254 0.025480 0.067633 153 0 76
0.196306 0.312385 -0.096627 76 153 0
0.312836 0.070905 0.067633 153 0 76
-0.015434 -0.609608 -0.122979 0 127 127
0.062393 -0.581755 -0.052391 127 0 127
0.413881 0.519096 -0.037393 76 153 0
0.531294 -0.041122 -0.096627 76 153 0
-0.021989 -0.601390 0.022572 0 127 127
0.222183 0.416228 0.067633 153 0 76
-0.561306 -0.084906 0.067633 153 0 76
0.083497 0.035659 -0.156612 127 0 127
-0.495913 0.314896 0.067633 153 0 76
-0.409937 0.319351 -0.096627 76 153 0
0.595782 -0.354553 -0.021566 76 153 0
-0.074429 0.545936 -0.022806 76 153 0
-0.328809 0.550318 0.067633 153 0 76
0.182005 0.079131 -0.096627 76 153 0
0.238169 -0.626034 0.146888 0 127 127
-0.012182 0.388786 -0.096627 76 153 0
0.483143 -0.644616 0.070588 0 127 127
0.686893 -0.420272 0.034833 76 153 0
0.438523 -0.644616 0.055162 0 127 127
0.160954 0.147991 -0.096627 76 153 0
0.239999 -0.063886 0.067633 153 0 76
-0.028127 -0.644616 0.088128 0 127 127
0.288422 0.467981 0.067633 153 0 76
-0.542858 0.137854 0.067633 153 0 76
0.793394 0.116739 0.075883 76 153 0
0.158298 0.188478 -0.096627 76 153 0
-0.065580 -0.231244 -0.076615 76 153 0
-0.138784 -0.601390 -0.041612 0 127 127
0.402965 -0.071754 -0.096627 76 153 0
-0.621353 -0.187298 0.067633 153 0 76
-0.700602 0.151845 -0.036028 76 153 0
0.085664 -0.601390 -0.270063 0 127 127
0.759142 0.186964 0.076278 76 153 0
-0.159479 0.590383 0.001351 76 153 0
0.459796 -0.166005 0.067633 153 0 76
0.189762 -0.644616 0.069904 0 127 127
-0.091016 -0.644616 -0.194136 0 127 127
0.363892 -0.601390 -0.018746 0 127 127
-0.339225 -0.024798 0.067633 153 0 76
0.661939 0.304461 -0.047775 76 153 0
0.066440 0.208416 -0.096627 76 153 0
-0.683465 0.112192 0.067633 153 0 76
-0.615197 -0.234363 0.067633 153 0 76
0.793394 0.310314 0.058967 76 153 0
-0.184706 0.377230 0.067633 153 0 76
0.167289 0.332782 0.067633 153 0 76
-0.805979 0.274609 0.044801 76 153 0
-0.580646 0.256871 0.067633 153 0 76
0.380124 -0.601390 0.054439 0 127 127
0.223592 -0.428485 0.027190 76 153 0
0.163425 0.551942 -0.019542 76 153 0
0.773817 0.602469 0.076278 76 153 0
0.301287 -0.644616 -0.003064 0 127 127
-0.070693 -0.066714 -0.156612 127 0 127
-0.191521 -0.126127 -0.096627 76 153 0
-0.735070 0.292185 -0.020502 76 153 0
0.279708 -0.132954 0.067633 153 0 76
-0.661476 0.337848 -0.053652 76 153 0
-0.805979 -0.273432 0.033348 76 153 0
0.224779 -0.420272 0.057958 76 153 0
-0.397399 0.067614 0.067633 153 0 76
0.378735 0.362962 -0.096627 76 153 0
-0.229752 -0.426372 0.010496 76 153 0
-0.024882 0.140907 0.067633 153 0 76
-0.657123 0.379076 0.067633 153 0 76
0.106049 -0.264915 -0.136020 127 0 127
0.232949 0.489683 -0.053378 76 153 0
-0.323735 -0.644616 0.080735 0 127 127
-0.464833 -0.003116 0.067633 153 0 76
-0.315126 0.046476 0.067633 153 0 76
0.084006 0.110018 -0.096627 127 0 127
0.736706 -0.291377 -0.014096 76 153 0
-0.222525 -0.250035 -0.068226 76 153 0
-0.409012 0.314988 0.067633 153 0 76
-0.376621 0.259663 0.067633 153 0 76
-0.391356 -0.331070 -0.032050 76 153 0
0.124964 0.350477 0.067633 153 0 76
0.449485 0.003197 0.067633 153 0 76
0.177183 0.279964 -0.096627 76 153 0
-0.323578 -0.128332 -0.096627 76 153 0
-0.604456 0.600733 0.042864 76 153 0
0.189033 0.448640 0.067633 153 0 76
0.543082 0.015451 0.067633 153 0 76
-0.191452 0.419975 0.067633 153 0 76
0.084962 -0.624879 0.078548 0 127 127
0.246099 0.555408 0.071577 153 0 76
0.758731 -0.030968 -0.004175 76 153 0
0.198936 -0.630278 0.129174 0 127 127
-0.805979 -0.093344 0.013073 76 153 0
0.696052 -0.020356 -0.032408 76 153 0
-0.408060 -0.251646 0.067633 153 0 76
0.257334 -0.381500 -0.009536 76 153 0
-0.669391 0.136472 0.067633 153 0 76
-0.000591 0.485795 -0.055491 76 153 0
0.766948 0.259126 -0.000474 76 153 0
0.052248 -0.275404 -0.156612 127 0 127
0.397792 -0.644616 0.198940 0 127 127
-0.565045 -0.376796 -0.011636 76 153 0
0.072295 -0.396759 -0.002724 76 153 0
-0.259415 0.247496 -0.096627 76 153 0
0.001669 -0.601390 0.094295 0 127 127
0.283747 -0.644616 0.038061 0 127 127
0.702084 -0.002041 0.067633 153 0 76
0.343377 -0.082891 0.067633 153 0 76
0.774172 0.477592 0.076278 76 153 0
-0.099647 0.024908 0.067633 153 0 76
0.732716 0.608946 0.013513 76 153 0
-0.019444 0.268401 -0.096627 76 153 0
-0.233428 -0.037379 0.067633 153 0 76
-0.497572 -0.644616 0.028297 0 127 127
0.286721 -0.216021 -0.083411 76 153 0
0.768994 0.600733 0.033493 76 153 0
0.034697 -0.644616 0.051244 0 127 127
-0.696807 -0.361005 -0.018686 76 153 0
-0.123799 -0.428485 0.025264 76 153 0
0.371060 0.441890 0.067633 153 0 76
-0.067714 0.240056 0.067633 153 0 76
0.620481 -0.102898 0.067633 153 0 76
0.059945 0.527404 -0.032877 76 153 0
0.682301 0.207910 0.067633 153 0 76
-0.023714 -0.559376 -0.046318 127 0 127
0.170091 0.240176 -0.096627 76 153 0
-0.060724 -0.601390 0.020980 0 127 127
-0.729822 -0.129580 0.067633 153 0 76
-0.479585 0.122142 0.067633 153 0 76
-0.419636 0.565424 0.076278 76 153 0
-0.451487 -0.625709 0.159264 0 127 127
-0.513039 0.531545 -0.030627 76 153 0
0.685836 0.395600 -0.037011 76 153 0
0.734088 0.423635 -0.015275 76 153 0
0.568111 0.438514 0.067633 153 0 76
-0.731779 -0.253119 0.067633 153 0 76
-0.272810 -0.100504 -0.096627 76 153 0
0.310328 -0.333955 0.067633 153 0 76
-0.096996 -0.644616 0.033939 0 127 127
0.412385 0.350203 0.067633 153 0 76
0.581816 -0.159810 -0.083866 76 153 0
0.333955 0.581349 0.076278 153 0 76
-0.447346 0.109668 -0.096627 76 153 0
0.448741 0.136552 0.067633 153 0 76
-0.268185 -0.421030 0.008111 76 153 0
-0.196606 -0.601390 -0.109921 0 127 127
-0.526118 0.341462 0.067633 153 0 76
-0.373051 0.160890 -0.096627 76 153 0
0.070779 -0.105357 -0.156612 127 0 127
0.361056 -0.601390 0.131494 0 127 127
0.646091 0.257456 0.067633 153 0 76
-0.035153 -0.241660 -0.146219 127 0 127
-0.439812 -0.644616 0.122949 0 127 127
0.088425 -0.457454 -0.137986 127 0 127
0.777508 -0.228313 0.004283 76 153 0
0.312434 0.173630 -0.096627 76 153 0
-0.778974 0.227951 -0.000725 76 153 0
0.136313 -0.644616 -0.122426 0 127 127
-0.744873 0.211186 -0.016086 76 153 0
0.658836 0.335488 0.067633 153 0 76
-0.683483 -0.244874 0.067633 153 0 76
-0.089091 -0.601390 -0.100261 0 127 127
-0.401843 -0.263182 -0.062357 76 153 0
0.105259 -0.607436 -0.245906 0 127 127
-0.240213 -0.221097 0.067633 153 0 76
0.291331 -0.363042 0.067633 153 0 76
-0.263267 0.587322 0.076278 76 153 0
-0.090579 -0.579656 -0.053836 127 0 127
-0.010509 0.600733 0.026890 76 153 0
0.522236 0.556462 0.076278 153 0 76
0.702145 0.585401 -0.001357 76 153 0
-0.694023 -0.233138 -0.038992 76 153 0
0.521892 -0.241698 -0.071948 76 153 0
0.700651 -0.237997 0.067633 76 153 0
-0.389629 -0.034965 0.067633 153 0 76
0.193184 0.352822 0.067633 153 0 76
-0.501761 0.515121 -0.039553 76 153 0
0.266958 -0.008941 0.067633 153 0 76
-0.092540 0.092186 -0.149139 127 0 127
-0.667264 0.600733 0.052469 76 153 0
-0.751371 -0.300914 0.069783 153 0 76
-0.209791 0.186104 0.067633 153 0 76
0.005877 0.150189 0.067633 153 0 76
0.083865 -0.088499 -0.096627 76 153 0
-0.678735 0.238056 0.067633 153 0 76
-0.362835 -0.251872 -0.067406 76 153 0
0.420157 -0.601390 0.051315 0 127 127
0.082867 -0.623800 -0.279943 0 127 127
-0.607817 -0.281692 0.067633 153 0 76
-0.336764 0.608946 0.064166 76 153 0
0.793394 -0.300699 0.069055 76 153 0
-0.149447 -0.123475 0.067633 153 0 76
0.427682 -0.615579 0.172453 0 127 127
-0.553879 0.608682 0.076278 76 153 0
0.606977 0.132562 -0.072532 76 153 0
0.444916 -0.644616 0.018357 0 127 127
-0.073379 -0.639664 0.090457 0 127 127
-0.468591 -0.284769 -0.052720 76 153 0
-0.472940 -0.245517 -0.070243 76 153 0
-0.014925 -0.217193 0.067633 153 0 76
-0.531059 0.308159 -0.096627 76 153 0
0.099196 -0.536133 -0.083806 127 0 127
-0.409341 0.529306 0.067633 153 0 76
-0.299945 0.140682 -0.096627 76 153 0
0.324140 0.332754 0.067633 153 0 76
0.048825 0.104909 0.067633 153 0 76
-0.080208 0.413717 0.067633 153 0 76
-0.095065 -0.209372 -0.156612 127 0 127
0.359451 0.608946 0.058842 76 153 0
0.739935 0.024675 0.073993 76 153 0
0.762117 0.447310 -0.002649 76 153 0
-0.601730 0.188432 -0.080565 76 153 0
-0.583693 0.010296 0.067633 153 0 76
-0.805979 0.109647 0.023877 76 153 0
0.576662 0.188259 -0.086188 76 153 0
-0.752910 -0.428485 0.024461 76 153 0
-0.257801 -0.601390 0.080423 0 127 127
-0.406928 -0.644616 0.048051 0 127 127
-0.423719 0.428935 0.067633 153 0 76
-0.307521 0.259153 0.067633 153 0 76
-0.376535 0.005354 0.067633 153 0 76
-0.209245 -0.214901 -0.083911 76 153 0
0.187859 -0.601390 -0.060086 0 127 127
-0.333549 0.165715 0.067633 153 0 76
0.731549 -0.312564 0.067633 76 153 0
-0.805979 -0.390089 0.014113 76 153 0
0.008058 -0.601390 0.022270 0 127 127
0.168912 -0.151911 0.067633 153 0 76
-0.068060 0.303076 0.067633 153 0 76
0.593529 0.513151 0.067633 153 0 76
0.423593 -0.306907 0.067633 153 0 76
0.123031 0.201660 -0.096627 76 153 0
0.069081 -0.601390 -0.000943 0 127 127
0.793394 0.348375 0.059167 76 153 0
0.739720 -0.410980 0.003624 76 153 0
0.379378 0.266811 -0.096627 76 153 0
-0.541548 0.389315 -0.096627 76 153 0
-0.331615 0.600733 0.013891 76 153 0
0.425234 0.471428 -0.063299 76 153 0
0.011904 0.081215 -0.154155 127 0 127
-0.055085 0.356706 -0.096627 76 153 0
-0.411423 0.499727 0.067633 153 0 76
0.493213 0.555408 0.070974 153 0 76
-0.657119 0.235310 -0.055615 76 153 0
-0.688201 0.515625 -0.039279 76 153 0
-0.100117 0.112113 -0.096627 127 0 127
-0.047304 -0.226413 -0.156612 127 0 127
0.180658 0.258018 0.067633 153 0 76
-0.338312 0.429883 0.067633 153 0 76
-0.600514 0.216614 -0.081113 76 153 0
0.180637 -0.644616 0.003512 0 127 127
0.548409 0.600339 0.006761 76 153 0
0.743634 0.251858 -0.010975 76 153 0
0.156517 -0.119470 -0.096627 76 153 0
0.038118 0.471988 -0.062994 76 153 0
0.417564 0.211141 -0.096627 76 153 0
0.562192 0.113948 0.067633 153 0 76
-0.238272 0.555408 0.075870 153 0 76
-0.623483 0.232999 0.067633 153 0 76
0.504402 0.223177 0.067633 153 0 76
-0.461504 0.029005 -0.096627 76 153 0
-0.082235 -0.111829 -0.096627 76 153 0
-0.464291 0.412293 0.067633 153 0 76
-0.130558 0.009578 -0.096627 76 153 0
0.030839 -0.208010 -0.156612 127 0 127
-0.598625 0.065214 0.067633 153 0 76
0.397409 0.556592 -0.017014 76 153 0
0.089534 -0.644616 0.059279 0 127 127
0.538504 0.594934 0.076278 76 153 0
0.678107 -0.125273 0.067633 153 0 76
-0.052756 -0.614679 -0.279943 0 127 127
0.384779 0.480536 -0.058349 76 153 0
0.328111 0.170666 0.067633 153 0 76
-0.622786 0.180466 0.067633 153 0 76
-0.653635 0.203041 0.067633 153 0 76
0.017654 -0.644616 -0.100517 0 127 127
0.040997 -0.303060 0.067633 153 0 76
0.096924 -0.365081 0.067633 153 0 76
-0.253819 0.058175 0.067633 153 0 76
0.469555 0.198842 0.067633 153 0 76
-0.036173 -0.369450 -0.014916 76 153 0
-0.067942 -0.337971 -0.028969 76 153 0
-0.084394 -0.270977 -0.058877 76 153 0
-0.246440 -0.402369 0.076278 76 153 0
-0.611039 -0.371452 0.067633 153 0 76
0.018475 -0.199585 0.067633 153 0 76
0.344307 -0.186163 0.067633 153 0 76
-0.157183 0.523659 -0.034912 76 153 0
0.014455 -0.404133 -0.156612 127 0 127
-0.786203 -0.421731 0.008424 76 153 0
0.739935 -0.219955 0.073668 76 153 0
0.012567 0.287459 0.067633 153 0 76
0.111992 0.048155 0.067633 153 0 76
0.217126 -0.644616 0.072016 0 127 127
-0.690665 -0.284235 0.067633 153 0 76
0.267625 -0.092654 0.067633 153 0 76
-0.414958 -0.404380 0.076278 76 153 0
-0.198937 -0.420272 0.027590 76 153 0
-0.443870 -0.310412 0.067633 153 0 76
-0.116439 -0.074980 -0.096627 76 153 0
-0.805979 -0.013759 0.021050 76 153 0
0.365451 -0.371496 0.067633 153 0 76
0.651632 0.608946 0.021323 76 153 0
-0.793664 0.075140 0.005892 76 153 0
0.102232 -0.501881 -0.107393 127 0 127
0.740532 0.122546 -0.012372 76 153 0
0.492166 -0.393379 0.076278 76 153 0
-0.107483 -0.644616 -0.051129 0 127 127
-0.237267 -0.601390 -0.077259 0 127 127
0.103147 -0.596990 -0.020417 0 127 127
-0.282662 0.206177 -0.096627 76 153 0
-0.347855 0.406992 -0.096627 76 153 0
-0.023891 -0.644616 0.028925 0 127 127
-0.425769 -0.020047 0.067633 153 0 76
0.598057 -0.251570 0.067633 153 0 76
-0.664125 -0.222276 -0.052459 76 153 0
-0.578041 -0.266620 0.067633 153 0 76
0.625059 -0.321980 0.067633 153 0 76
-0.648252 0.600733 0.058448 76 153 0
-0.124233 -0.111149 0.067633 153 0 76
-0.718319 0.065501 -0.028047 76 153 0
0.078008 0.392747 -0.096627 76 153 0
-0.239181 -0.039401 -0.096627 76 153 0
-0.010875 -0.127635 -0.096627 76 153 0
-0.522037 0.047315 -0.096627 76 153 0
0.343295 -0.406835 0.001774 76 153 0
-0.332457 0.588423 0.076278 76 153 0
0.652069 0.202408 -0.052221 76 153 0
-0.633043 -0.194507 -0.066460 76 153 0
-0.238139 -0.017459 -0.096627 76 153 0
0.067244 0.509273 0.067633 153 0 76
-0.215043 -0.343109 0.067633 153 0 76
0.761799 -0.361872 0.076278 76 153 0
-0.147869 -0.402709 -0.000068 76 153 0
-0.209005 -0.644616 0.014300 0 127 127
-0.294709 -0.087883 0.067633 153 0 76
-0.440355 -0.644616 0.212925 0 127 127
0.028593 -0.183653 -0.135129 127 0 127
0.442365 -0.420272 0.019732 76 153 0
0.052822 0.575835 0.076278 76 153 0
-0.030887 -0.601390 -0.231705 0 127 127
-0.510429 -0.189572 -0.095219 76 153 0
0.003518 0.033795 0.067633 153 0 76
-0.649737 -0.010315 -0.058940 76 153 0
0.697070 -0.357627 -0.020194 76 153 0
0.756560 -0.250024 -0.005153 76 153 0
-0.505441 0.282803 -0.096627 76 153 0
-0.411032 0.273319 0.067633 153 0 76
0.519576 -0.390976 0.076278 76 153 0
-0.311414 -0.601390 0.068624 0 127 127
0.626708 -0.197529 0.067633 153 0 76
-0.036637 0.129296 -0.115154 127 0 127
0.793394 -0.286460 0.029078 76 153 0
-0.241987 -0.644616 -0.070149 0 127 127
0.431907 -0.027431 0.067633 153 0 76
-0.714936 0.027564 0.067633 153 0 76
0.441024 -0.640506 0.202786 0 127 127
-0.098781 0.116089 -0.127880 127 0 127
-0.384508 0.534198 -0.029185 76 153 0
-0.802568 0.526318 0.076278 76 153 0
0.105259 -0.643816 -0.157563 0 127 127
0.546436 0.229369 -0.096627 76 153 0
0.297799 0.184509 0.067633 153 0 76
0.138788 -0.356506 -0.020694 76 153 0
0.407983 0.364197 -0.096627 76 153 0
0.387432 0.202613 -0.096627 76 153 0
0.005270 0.030192 -0.156612 127 0 127
0.035485 0.414537 0.067633 153 0 76
0.460895 -0.407980 0.002285 76 153 0
0.231226 0.342653 0.067633 153 0 76
0.348453 -0.234763 -0.075044 76 153 0
0.320879 -0.135727 0.067633 153 0 76
0.628791 -0.283442 0.067633 153 0 76
0.211628 0.439075 -0.080882 76 153 0
0.101237 -0.074947 0.067633 153 0 76
0.087761 -0.440830 -0.127951 127 0 127
-0.289416 -0.644616 0.117232 0 127 127
0.050442 -0.300733 -0.135129 127 0 127
-0.267655 -0.170510 -0.096627 76 153 0
-0.244826 0.347610 -0.096627 76 153 0
-0.727318 0.366035 -0.023994 76 153 0
-0.460213 -0.039482 -0.096627 76 153 0
0.035461 -0.006423 -0.156612 127 0 127
-0.062985 -0.583107 -0.029977 127 0 127
-0.661063 0.017584 -0.053838 76 153 0
0.498022 -0.012762 -0.096627 76 153 0
-0.036900 -0.527499 -0.089752 127 0 127
0.040637 -0.223025 -0.135129 127 0 127
-0.351069 0.282789 -0.096627 76 153 0
0.132795 0.293028 -0.096627 76 153 0
0.321334 0.356428 -0.096627 76 153 0
-0.720473 -0.196002 -0.027077 76 153 0
-0.751371 0.390123 0.075499 153 0 76
-0.041458 -0.184957 -0.156612 127 0 127
0.394813 -0.428485 0.011543 76 153 0
0.465731 0.284168 -0.096627 76 153 0
-0.377846 0.588698 0.076278 76 153 0
-0.805979 0.278241 0.018092 76 153 0
0.110684 0.178200 0.067633 153 0 76
-0.255028 -0.644616 0.097803 0 127 127
-0.271611 0.549476 -0.020882 76 153 0
-0.117346 -0.140134 -0.096627 76 153 0
0.034742 0.059413 0.067633 153 0 76
-0.022778 -0.644616 -0.090114 0 127 127
-0.623758 -0.001970 0.067633 153 0 76
0.009093 -0.240655 -0.072414 76 153 0
0.516037 0.538982 -0.026585 76 153 0
-0.106713 -0.192426 -0.156612 127 0 127
0.104261 -0.120445 -0.156612 127 0 127
-0.105267 -0.228298 -0.135129 127 0 127
0.749208 0.013883 -0.008464 76 153 0
0.084903 -0.601390 -0.161720 0 127 127
-0.744663 0.362533 0.067633 153 0 76
0.155487 0.035551 -0.096627 76 153 0
0.030297 -0.609608 -0.040423 127 0 127
-0.596319 0.501189 -0.047125 76 153 0
-0.030901 -0.591390 -0.045755 127 0 127
0.348066 0.137550 0.067633 153 0 76
0.412598 -0.346111 -0.025335 76 153 0
0.175811 -0.140446 -0.096627 76 153 0
-0.334931 -0.428485 0.025959 76 153 0
0.610016 -0.295700 -0.047840 76 153 0
0.308009 0.563756 0.076278 153 0 76
-0.700469 0.201077 -0.036088 76 153 0
0.721458 0.085078 0.067633 76 153 0
-0.131019 0.090930 0.067633 153 0 76
-0.316712 0.078554 0.067633 153 0 76
0.763516 -0.323226 -0.002019 76 153 0
0.227764 0.385701 -0.096627 76 153 0
0.477354 -0.644616 0.099010 0 127 127
0.594690 0.321867 -0.078067 76 153 0
-0.512069 0.198786 0.067633 153 0 76
0.386817 -0.304979 0.067633 153 0 76
0.081273 -0.536519 -0.062058 127 0 127
-0.000377 -0.453574 -0.140657 127 0 127
-0.145093 0.096015 -0.096627 76 153 0
0.494973 0.053290 0.067633 153 0 76
0.231518 0.300605 0.067633 153 0 76
-0.805979 0.400665 0.016984 76 153 0
-0.269976 -0.209701 -0.086232 76 153 0
0.051194 0.162164 -0.096627 76 153 0
0.021836 -0.601390 -0.186022 0 127 127
-0.660077 0.010400 0.067633 153 0 76
-0.755013 0.069385 -0.011518 76 153 0
0.029939 0.107609 -0.136050 127 0 127
0.233198 -0.171135 -0.096627 76 153 0
0.125194 -0.254958 0.067633 153 0 76
-0.751371 0.198375 0.068452 153 0 76
-0.430776 -0.278904 0.067633 153 0 76
-0.317186 -0.111129 0.067633 153 0 76
0.720541 -0.199167 -0.021377 76 153 0
-0.619110 0.565719 -0.012054 76 153 0
-0.200699 0.319735 0.067633 153 0 76
-0.014011 0.290324 0.067633 153 0 76
0.739935 -0.159540 0.074155 76 153 0
-0.790192 0.535882 0.004328 76 153 0
-0.431700 0.608946 0.020756 76 153 0
0.226363 0.407576 -0.096627 76 153 0
0.739485 0.521708 0.067633 76 153 0
-0.367425 0.037687 0.067633 153 0 76
0.618922 0.289263 0.067633 153 0 76
0.015439 -0.556098 -0.048575 127 0 127
0.312440 0.388685 -0.096627 76 153 0
-0.805979 -0.319375 0.057678 76 153 0
0.067353 -0.238743 0.067633 153 0 76
-0.680581 -0.423238 0.009097 76 153 0
0.522703 0.219482 -0.096627 76 153 0
-0.431110 -0.282305 -0.053820 76 153 0
0.202424 -0.415609 0.076278 76 153 0
0.429724 -0.209522 -0.086312 76 153 0
-0.471794 -0.356378 -0.020752 76 153 0
0.361491 -0.367638 -0.015725 76 153 0
-0.127311 -0.246864 0.067633 153 0 76
-0.562658 0.608431 0.011159 76 153 0
-0.649088 0.034794 0.067633 153 0 76
-0.239920 -0.393272 -0.004281 76 153 0
0.302419 -0.174881 -0.096627 76 153 0
-0.133086 0.217858 0.067633 153 0 76
-0.616325 -0.125942 -0.073991 76 153 0
-0.019834 0.245090 -0.096627 76 153 0
0.352912 -0.644616 0.018191 0 127 127
-0.563941 -0.337328 -0.029256 76 153 0
-0.279345 -0.412572 0.076278 76 153 0
-0.319389 -0.601390 0.105966 0 127 127
0.086097 0.478275 0.067633 153 0 76
-0.427992 -0.077066 -0.096627 76 153 0
0.089467 -0.560598 -0.045477 127 0 127
0.245840 -0.601390 -0.085553 0 127 127
0.092701 -0.644616 -0.016820 0 127 127
0.030851 -0.145930 -0.096627 76 153 0
0.389545 -0.296889 -0.047309 76 153 0
-0.414863 -0.204665 -0.088481 76 153 0
0.303394 -0.601390 -0.044381 0 127 127
0.026889 0.160486 -0.096627 76 153 0
0.410193 -0.269174 0.067633 153 0 76
0.249258 -0.193397 0.067633 153 0 76
-0.035724 0.584701 0.076278 76 153 0
-0.283656 0.050142 0.067633 153 0 76
0.221671 -0.088588 -0.096627 76 153 0
-0.067361 0.513385 0.067633 153 0 76
-0.003261 -0.500116 -0.087125 127 0 127
-0.027346 -0.474427 -0.104815 127 0 127
-0.486964 0.580788 -0.003864 76 153 0
-0.493612 -0.244402 -0.070741 76 153 0
0.145886 -0.644616 0.063911 0 127 127
-0.226610 0.106987 -0.096627 76 153 0
-0.530146 0.282810 -0.096627 76 153 0
-0.673400 0.356364 0.067633 153 0 76
-0.307053 -0.644616 -0.043746 0 127 127
0.104885 0.119963 -0.096627 127 0 127
0.301345 0.193869 -0.096627 76 153 0
0.129413 -0.216491 0.067633 153 0 76
0.585091 -0.120163 0.067633 153 0 76
0.387411 -0.389687 -0.005881 76 153 0
-0.775880 0.035412 -0.002119 76 153 0
-0.789017 -0.297537 0.076278 76 153 0
-0.778706 0.166917 -0.000846 76 153 0
0.722658 0.600733 0.073897 76 153 0
-0.165162 -0.644616 0.034317 0 127 127
-0.266704 -0.008011 0.067633 153 0 76
-0.642689 0.484300 -0.056303 76 153 0
0.494028 -0.343988 0.067633 153 0 76
0.244993 0.348416 -0.096627 76 153 0
0.394482 0.099344 0.067633 153 0 76
0.012732 -0.438621 -0.129472 127 0 127
0.344944 0.419643 -0.091443 76 153 0
0.382885 -0.331878 0.067633 153 0 76
0.044642 -0.353222 -0.022160 76 153 0
0.247100 -0.241342 0.067633 153 0 76
-0.301749 0.325522 0.067633 153 0 76
-0.093291 -0.257280 -0.135129 127 0 127
-0.302203 -0.063301 0.067633 153 0 76
0.065708 0.101434 -0.142001 127 0 127
0.031730 -0.308099 -0.156612 127 0 127
-0.081375 0.146493 -0.096627 127 0 127
0.544282 0.315779 -0.096627 76 153 0
-0.375382 -0.601390 0.057772 0 127 127
0.547427 0.364670 0.067633 153 0 76
0.613558 -0.330098 -0.032484 76 153 0
-0.411934 0.386513 0.067633 153 0 76
-0.351011 -0.644616 0.108962 0 127 127
-0.059806 -0.164091 -0.096627 76 153 0
0.522361 0.391681 0.067633 153 0 76
-0.610958 -0.329862 0.067633 153 0 76
0.296528 0.592226 0.002352 76 153 0
-0.126659 -0.644616 0.012521 0 127 127
-0.784103 0.596007 0.076278 76 153 0
-0.017036 -0.644616 -0.278478 0 127 127
-0.338884 -0.119623 0.067633 153 0 76
-0.020548 -0.533095 -0.064416 127 0 127
-0.024931 -0.644616 0.048900 0 127 127
0.230280 0.158894 -0.096627 76 153 0
0.528852 0.020989 -0.096627 76 153 0
-0.017138 -0.644616 0.069359 0 127 127
-0.550744 0.368925 0.067633 153 0 76
0.139601 -0.629199 -0.134758 0 127 127
0.139899 0.326039 -0.096627 76 153 0
0.468926 -0.644616 0.140516 0 127 127
-0.391434 -0.056793 -0.096627 76 153 0
-0.596029 -0.081215 0.067633 153 0 76
-0.076475 -0.196015 -0.092342 76 153 0
-0.068836 -0.347852 -0.156612 127 0 127
-0.724682 0.177419 -0.025181 76 153 0
-0.109293 -0.616234 -0.263117 0 127 127
0.319153 0.600733 0.050593 76 153 0
0.338912 0.500985 0.067633 153 0 76
-0.413836 -0.428485 0.034935 76 153 0
0.105757 -0.023177 -0.135129 127 0 127
0.726050 -0.008698 -0.018896 76 153 0
-0.201210 0.540438 -0.025793 76 153 0
-0.480993 -0.209579 -0.086287 76 153 0
0.362327 -0.644293 0.202948 0 127 127
0.068716 -0.256023 -0.065553 76 153 0
-0.789784 0.133790 0.076278 76 153 0
0.059169 -0.644616 -0.112045 0 127 127
0.096683 0.022751 0.067633 153 0 76
-0.016353 0.121778 -0.096627 127 0 127
0.717087 -0.161264 -0.022933 76 153 0
0.467934 0.261479 -0.096627 76 153 0
0.261749 0.060772 0.067633 153 0 76
-0.519007 -0.084648 -0.096627 76 153 0
0.099834 -0.306236 -0.135129 127 0 127
-0.646677 -0.365674 0.067633 153 0 76
0.104460 -0.185821 -0.135129 127 0 127
0.609020 0.050077 -0.071612 76 153 0
-0.087907 -0.149695 -0.135129 127 0 127
0.020898 0.014403 -0.135129 127 0 127
0.087965 -0.117997 -0.135129 127 0 127
-0.103655 0.013351 -0.135129 127 0 127
-0.029596 -0.644616 -0.223206 0 127 127
-0.435852 -0.163106 -0.096627 76 153 0
0.582331 -0.292163 -0.049419 76 153 0
0.128093 -0.343871 0.067633 153 0 76
-0.421998 -0.644616 0.149653 0 127 127
-0.009457 -0.078412 0.067633 153 0 76
0.198781 0.137920 -0.096627 76 153 0
0.021362 0.543783 -0.023976 76 153 0
0.233795 0.226423 -0.096627 76 153 0
-0.404449 0.047615 0.067633 153 0 76
0.338182 -0.261676 0.067633 153 0 76
-0.168262 0.546018 0.067633 153 0 76
-0.805979 0.254104 0.042419 76 153 0
0.721352 0.586240 -0.000901 76 153 0
-0.118790 -0.601390 -0.135499 0 127 127
0.052876 -0.128868 -0.156612 127 0 127
-0.678342 -0.302255 -0.044914 76 153 0
-0.299687 -0.424416 0.076278 76 153 0
-0.329577 0.044421 -0.096627 76 153 0
-0.526108 0.145141 -0.096627 76 153 0
0.665847 0.374724 0.067633 153 0 76
0.246979 0.554273 -0.018275 76 153 0
-0.805979 0.420579 0.072931 76 153 0
-0.298566 -0.644616 0.150011 0 127 127
-0.250689 -0.601390 0.146045 0 127 127
0.032505 -0.429344 -0.135129 127 0 127
0.438405 -0.621068 0.000157 0 127 127
-0.478844 -0.622811 0.016595 0 127 127
0.433185 -0.052692 -0.096627 76 153 0
0.232333 -0.383625 0.076278 76 153 0
-0.344514 0.048913 0.067633 153 0 76
0.027939 -0.601390 0.067107 0 127 127
0.192202 0.483682 -0.056639 76 153 0
0.038990 0.119365 -0.096627 127 0 127
-0.708862 0.108603 -0.032307 76 153 0
0.092701 -0.077879 -0.156612 127 0 127
-0.203339 -0.601390 0.038937 0 127 127
0.000303 0.308488 0.067633 153 0 76
0.417044 0.071895 0.067633 153 0 76
0.407826 -0.315345 -0.039070 76 153 0
-0.612445 -0.116734 0.067633 153 0 76
-0.745520 0.235192 -0.015795 76 153 0
0.785648 -0.113942 0.007950 76 153 0
-0.431169 -0.126505 -0.096627 76 153 0
0.498636 -0.397688 -0.002310 76 153 0
0.384651 0.260441 0.067633 153 0 76
0.276906 0.372962 0.067633 153 0 76
-0.805979 -0.330055 0.021980 76 153 0
-0.665699 -0.347057 0.067633 153 0 76
0.644841 0.124717 0.067633 153 0 76
-0.288129 -0.225177 0.067633 153 0 76
0.348341 0.375048 -0.096627 76 153 0
-0.651261 0.078084 -0.058254 76 153 0
0.342524 -0.166056 0.067633 153 0 76
-0.234684 0.582566 0.076278 76 153 0
-0.595520 -0.169795 0.067633 153 0 76
0.739170 -0.329744 -0.012986 76 153 0
0.109251 0.358878 -0.096627 76 153 0
-0.029101 0.197170 0.067633 153 0 76
0.430371 0.593946 0.076278 76 153 0
0.318569 0.003399 0.067633 153 0 76
-0.658374 0.319366 0.067633 153 0 76
0.413130 -0.601390 0.085424 0 127 127
0.731340 -0.338185 0.067633 76 153 0
-0.166456 -0.617746 -0.124454 0 127 127
0.605203 -0.083274 -0.073331 76 153 0
-0.609153 0.164988 0.067633 153 0 76
0.422169 -0.428485 0.032971 76 153 0
0.340211 -0.601390 0.105748 0 127 127
0.793394 0.271248 0.014641 76 153 0
-0.762432 0.511879 0.076278 153 0 76
-0.375560 -0.644616 0.206494 0 127 127
-0.222749 -0.601390 0.125680 0 127 127
-0.392721 -0.231411 -0.076541 76 153 0
0.737195 0.572553 -0.008340 76 153 0
-0.029963 -0.177649 0.067633 153 0 76
0.053721 -0.428485 0.060714 76 153 0
0.612571 0.384017 0.067633 153 0 76
0.457601 -0.221997 0.067633 153 0 76
0.292723 0.544880 0.067633 153 0 76
0.710619 -0.345008 -0.025828 76 153 0
-0.461159 0.484107 -0.056408 76 153 0
0.242233 -0.601390 0.117675 0 127 127
0.049198 -0.111982 -0.096627 76 153 0
0.561329 -0.340734 -0.027736 76 153 0
-0.114611 0.295003 0.067633 153 0 76
-0.287524 -0.136869 -0.096627 76 153 0
-0.091241 -0.003669 -0.135129 127 0 127
0.090205 0.021916 -0.096627 76 153 0
-0.529023 -0.125443 -0.096627 76 153 0
-0.701145 -0.180934 0.067633 153 0 76
-0.291190 -0.341783 -0.027267 76 153 0
0.029686 -0.279689 -0.155123 127 0 127
0.479400 -0.624704 0.085875 0 127 127
0.451029 0.571566 0.076278 153 0 76
0.098492 0.608946 0.021004 76 153 0
0.167629 -0.284444 0.067633 153 0 76
-0.013887 -0.227471 -0.137603 127 0 127
-0.541441 0.484326 0.067633 153 0 76
0.306533 -0.601390 0.116306 0 127 127
-0.031108 -0.156968 -0.135129 127 0 127
-0.017454 -0.420053 0.007675 76 153 0
0.146542 0.502342 -0.046498 76 153 0
-0.271987 -0.644616 0.038652 0 127 127
-0.107335 -0.609608 -0.012272 0 127 127
0.041748 -0.318888 -0.037488 76 153 0
0.255279 -0.601390 -0.064520 0 127 127
-0.027244 -0.388953 0.076278 153 0 76
-0.159036 -0.293898 -0.048644 76 153 0
-0.101133 -0.428485 0.050572 76 153 0
0.684642 0.310193 0.067633 153 0 76
0.793264 0.405007 0.076278 76 153 0
-0.435297 0.565406 -0.012224 76 153 0
0.703370 0.398197 -0.029112 76 153 0
-0.014069 -0.213175 -0.156612 127 0 127
-0.094172 -0.601390 0.061653 0 127 127
0.605152 -0.216185 0.067633 153 0 76
0.520720 0.518573 0.067633 153 0 76
-0.540249 0.360551 -0.096627 76 153 0
0.739758 0.090315 0.067633 76 153 0
0.179959 0.516984 -0.038540 76 153 0
-0.397905 0.372403 0.067633 153 0 76
-0.361355 0.328967 0.067633 153 0 76
0.337221 -0.043090 0.067633 153 0 76
0.074104 0.214614 0.067633 153 0 76
0.327863 -0.428485 0.021624 76 153 0
0.422838 0.552941 0.067633 153 0 76
-0.470910 0.277144 -0.096627 76 153 0
-0.514433 0.499504 0.067633 153 0 76
-0.039719 0.424077 -0.089033 76 153 0
-0.311865 0.488463 -0.054041 76 153 0
0.671622 0.264200 -0.043413 76 153 0
-0.319750 0.600733 0.036909 76 153 0
0.336158 0.296671 0.067633 153 0 76
-0.153921 -0.053696 -0.096627 76 153 0
0.581973 0.608946 0.072532 76 153 0
0.528816 -0.392095 -0.004806 76 153 0
-0.174254 0.106175 0.067633 153 0 76
0.437506 -0.131716 -0.096627 76 153 0
-0.739079 -0.049781 0.067633 153 0 76
-0.784971 0.490139 0.001976 76 153 0
0.445378 -0.644616 0.084271 0 127 127
-0.200643 0.288935 -0.096627 76 153 0
0.221445 -0.644616 0.103451 0 127 127
0.365779 -0.417237 0.006418 76 153 0
-0.385514 -0.413190 0.004611 76 153 0
-0.726086 -0.196039 0.067633 153 0 76
-0.733510 0.472517 -0.021205 76 153 0
0.519755 0.462813 -0.067981 76 153 0
-0.196709 0.161358 0.067633 153 0 76
0.300230 -0.383325 -0.008722 76 153 0
0.024011 -0.609608 0.029499 0 127 127
0.548476 0.283080 -0.096627 76 153 0
0.066429 -0.489420 -0.094491 127 0 127
0.307620 -0.601390 -0.005365 0 127 127
0.604082 0.059066 0.067633 153 0 76
0.261541 -0.644616 0.003364 0 127 127
0.054017 -0.155043 -0.096627 76 153 0
-0.071057 -0.051623 0.067633 153 0 76
0.380315 0.022823 0.067633 153 0 76
-0.668576 0.047193 0.067633 153 0 76
0.632061 -0.380242 0.076278 153 0 76
-0.526189 -0.333009 -0.031184 76 153 0
-0.558872 0.070560 0.067633 153 0 76
-0.312494 -0.643163 0.178626 0 127 127
0.461457 -0.193547 -0.093444 76 153 0
-0.108856 -0.396248 -0.156612 127 0 127
-0.716731 -0.413191 0.076278 76 153 0
-0.182333 0.509021 0.067633 153 0 76
0.583273 -0.387918 -0.006671 76 153 0
0.040539 -0.601390 -0.155828 0 127 127
0.655292 -0.418116 0.076278 76 153 0
0.458671 0.146941 -0.096627 76 153 0
-0.035361 -0.412354 0.004238 76 153 0
0.793394 -0.138669 0.042875 76 153 0
-0.702946 0.186536 0.067633 153 0 76
0.065952 0.135041 -0.096627 127 0 127
-0.157640 0.322677 -0.096627 76 153 0
-0.049547 -0.644616 -0.263130 0 127 127
0.131296 -0.601390 -0.029894 0 127 127
-0.295334 0.600733 0.012723 76 153 0
-0.025263 -0.392550 -0.135129 127 0 127
-0.334512 -0.626580 0.188567 0 127 127
0.455973 -0.340293 0.067633 153 0 76
0.530349 0.095088 0.067633 153 0 76
0.077347 -0.240637 -0.135129 127 0 127
-0.239024 -0.336857 0.067633 153 0 76
0.172263 0.380319 -0.096627 76 153 0
0.506460 -0.222834 -0.080369 76 153 0
-0.664695 -0.203826 0.067633 153 0 76
0.793394 0.426361 0.074570 76 153 0
0.180536 0.152016 -0.096627 76 153 0
0.783421 -0.182332 0.006947 76 153 0
0.038527 0.403036 -0.096627 76 153 0
-0.201035 -0.641008 -0.108841 0 127 127
-0.069096 -0.431406 -0.155923 127 0 127
-0.068751 0.194861 0.067633 153 0 76
-0.078417 -0.601390 0.085834 0 127 127
0.416531 0.026046 0.067633 153 0 76
-0.542881 -0.231858 -0.076341 76 153 0
0.216493 0.019096 -0.096627 76 153 0
0.220246 0.046971 -0.096627 76 153 0
-0.265040 0.390106 0.067633 153 0 76
-0.747304 0.500524 0.067633 153 0 76
-0.685051 -0.374552 -0.012638 76 153 0
-0.307579 0.573868 -0.007625 76 153 0
0.288713 -0.644616 -0.035800 0 127 127
0.367338 -0.644616 0.031054 0 127 127
-0.067401 -0.214964 -0.135129 127 0 127
-0.367741 -0.428485 0.032725 76 153 0
-0.021414 -0.467265 -0.131230 127 0 127
-0.206056 0.371458 -0.096627 76 153 0
0.049031 0.286472 0.067633 153 0 76
0.410198 -0.269865 -0.059374 76 153 0
0.406296 0.533630 0.067633 153 0 76
-0.022378 0.122259 0.067633 153 0 76
-0.156770 -0.354898 -0.021412 76 153 0
0.167560 0.177799 0.067633 153 0 76
0.059610 -0.294162 -0.048527 76 153 0
0.772336 0.540740 0.001953 76 153 0
-0.652594 0.115794 -0.057653 76 153 0
0.707191 -0.063736 0.067633 76 153 0
-0.621101 0.093739 0.067633 153 0 76
0.566193 0.608946 0.051404 76 153 0
0.345135 -0.626116 -0.041956 0 127 127
-0.717217 -0.420272 0.058594 76 153 0
0.376124 0.476905 0.067633 153 0 76
0.083872 -0.144722 -0.156612 127 0 127
0.387972 -0.206525 -0.087650 76 153 0
0.071570 0.075615 0.067633 153 0 76
-0.243603 0.434799 -0.083206 76 153 0
-0.154929 0.061616 0.067633 153 0 76
0.793394 0.375548 0.065426 76 153 0
-0.193281 0.479381 -0.058977 76 153 0
-0.278780 -0.243001 -0.071366 76 153 0
0.042822 -0.537768 -0.061198 127 0 127
-0.790562 0.242090 0.004494 76 153 0
0.031112 0.555408 0.069692 153 0 76
0.793394 0.343652 0.039059 76 153 0
-0.746284 -0.101481 -0.015451 76 153 0
0.161343 -0.601390 0.098176 0 127 127
-0.049348 -0.568299 -0.061657 127 0 127
0.434074 0.259368 -0.096627 76 153 0
-0.532158 0.602402 0.076278 76 153 0
0.791649 -0.343702 0.076278 76 153 0
-0.658627 -0.420272 0.031838 76 153 0
0.219499 -0.247601 -0.069313 76 153 0
-0.027423 0.014238 -0.156612 127 0 127
0.780964 0.480966 0.005840 76 153 0
