ply
format ascii 1.0
element vertex 1293
property float x
property float y
property float z
property uchar red
property uchar green
property uchar blue
end_header
0.673851 0.316351 0.037586 255 0 0
0.756957 0.281437 -0.148863 255 0 0
-0.175935 0.281437 -0.231058 255 0 0
0.093097 0.316351 0.484518 255 0 0
-0.663000 0.316351 0.557640 255 0 0
-0.055670 -0.169419 -0.312907 153 0 76
-0.041341 -0.504118 0.164041 153 76 0
0.287762 -0.313775 -0.168364 76 153 0
-0.148819 -0.528052 -0.330364 255 0 0
-0.265036 0.035999 -0.041340 153 0 76
-0.394809 0.316351 -0.258044 255 0 0
-0.270855 0.090725 -0.204999 153 0 76
-0.227928 0.235789 -0.330364 153 76 0
-0.291158 0.281437 -0.057465 255 0 0
-0.288312 -0.518366 0.191338 153 0 76
0.008347 -0.010752 0.338812 76 0 153
-0.739272 0.316351 0.077988 255 0 0
0.711474 0.316351 0.101436 255 0 0
-0.364375 0.281437 0.391103 255 0 0
-0.047941 -0.028025 0.338812 76 0 153
0.387995 0.281437 -0.109411 255 0 0
0.636192 0.316351 0.258088 255 0 0
-0.147799 0.281437 -0.046933 255 0 0
-0.693103 0.298155 0.534227 255 0 0
0.117709 0.229067 0.345785 153 0 76
0.044230 -0.136066 0.338812 76 0 153
-0.648827 0.281437 -0.551075 255 0 0
-0.657899 0.281437 -0.372806 255 0 0
-0.243584 -0.491490 -0.301270 0 255 0
-0.224825 -0.504118 -0.293807 153 76 0
-0.558913 0.281437 -0.533000 255 0 0
-0.063699 -0.382629 0.338812 76 0 153
0.298810 0.214360 0.327174 127 0 127
-0.344319 0.281437 -0.045615 255 0 0
0.287762 -0.474992 0.064943 76 153 0
0.435481 0.281437 -0.311699 255 0 0
0.302060 0.278777 0.013609 76 0 153
-0.150474 -0.504118 -0.029225 153 76 0
-0.259281 -0.498235 -0.227459 153 0 76
-0.270855 0.092708 0.064340 153 0 76
0.287762 -0.450327 0.256465 76 153 0
0.566318 0.316092 -0.322172 255 0 0
-0.137151 0.281437 0.390494 255 0 0
0.251418 0.171061 0.332993 76 0 153
-0.322291 0.281437 -0.171691 255 0 0
0.252848 -0.235862 0.336124 127 0 127
0.283609 -0.544850 0.140967 0 255 0
-0.077499 -0.408385 0.332993 76 0 153
0.271198 -0.544850 0.333532 127 0 127
0.779342 0.316351 -0.142054 255 0 0
-0.089599 0.086065 -0.307088 153 0 76
-0.406758 0.281437 0.224793 255 0 0
-0.725918 0.316351 -0.370158 255 0 0
-0.566874 0.281437 0.381880 255 0 0
0.787219 0.281437 -0.076444 255 0 0
0.065290 -0.515169 -0.220278 0 0 255
-0.284232 0.230806 -0.061505 76 0 153
0.288104 0.281437 -0.076506 255 0 0
0.287762 -0.397445 0.322465 76 153 0
0.281943 -0.122214 -0.134389 76 153 0
0.922223 0.281437 0.045390 255 0 0
-0.567259 0.281437 -0.003574 255 0 0
-0.078589 -0.093389 0.338812 76 0 153
0.886032 0.281437 -0.047032 255 0 0
0.281943 0.019204 0.230804 76 153 0
-0.502947 0.316351 -0.079366 255 0 0
-0.265036 -0.202959 0.133541 153 0 76
0.234813 -0.492480 0.344654 76 0 153
-0.270855 0.187906 0.044425 153 0 76
0.794717 0.284000 0.253470 255 0 0
0.276124 0.250271 -0.126593 76 0 153
0.638915 0.316351 0.197120 255 0 0
-0.001744 0.316351 0.001404 255 0 0
0.087984 0.281437 0.201288 255 0 0
0.104310 -0.510176 0.327174 0 0 255
-0.150022 -0.509937 -0.052415 153 76 0
-0.256464 0.281437 0.572423 255 0 0
-0.270855 -0.150647 0.327050 153 0 76
0.281943 -0.413222 -0.202955 76 153 0
0.456126 0.281437 -0.221818 255 0 0
-0.171143 0.281437 -0.188269 255 0 0
-0.675514 0.312795 0.572329 255 0 0
0.281943 -0.433303 -0.280547 76 153 0
0.010893 -0.109608 0.332993 76 0 153
-0.524539 0.316351 -0.539023 255 0 0
-0.020779 0.316351 0.363098 255 0 0
-0.460708 0.316351 -0.080980 255 0 0
-0.270855 -0.188473 0.048126 153 0 76
-0.299748 0.281437 0.186210 255 0 0
-0.519225 0.316351 0.578297 255 0 0
-0.184736 0.316351 0.331017 255 0 0
-0.633335 0.316351 0.582508 255 0 0
0.287762 0.132628 -0.297001 76 153 0
-0.480453 0.281437 -0.137252 255 0 0
0.117073 -0.527981 0.271941 0 0 255
-0.199280 -0.504118 -0.019727 153 76 0
0.229743 -0.509937 0.105078 153 76 0
-0.228082 -0.509937 -0.006395 153 76 0
0.287762 0.149130 -0.221749 76 153 0
0.222082 0.216408 -0.307088 153 0 76
-0.041604 0.316351 -0.479291 255 0 0
0.639581 0.281437 0.168854 255 0 0
-0.190813 -0.102178 0.338812 76 0 153
-0.377256 0.281437 -0.529176 255 0 0
-0.270855 -0.201417 -0.178740 153 0 76
0.186265 -0.138104 0.332993 76 0 153
-0.243257 0.316351 -0.294769 255 0 0
-0.012974 0.281437 0.368048 255 0 0
-0.358365 0.281437 -0.163137 255 0 0
0.396135 0.316351 -0.081159 255 0 0
-0.308203 0.316351 0.593664 255 0 0
0.254212 -0.468833 0.351815 127 0 127
-0.270855 -0.199209 0.271267 153 0 76
0.281943 0.040616 0.184035 76 153 0
-0.141218 0.316351 -0.370648 255 0 0
-0.270855 0.095571 0.142667 153 0 76
0.067784 0.281437 0.422994 255 0 0
0.003967 0.281437 0.173403 255 0 0
-0.105752 -0.544850 0.342304 76 0 153
-0.288312 0.264714 -0.024630 76 0 153
0.040805 0.281437 0.302872 255 0 0
0.261311 0.316351 -0.404021 255 0 0
0.412295 0.281437 0.226611 255 0 0
0.281943 -0.465025 -0.108770 76 153 0
0.311058 0.316351 -0.307038 255 0 0
0.110069 0.316351 0.444855 255 0 0
-0.270855 0.040902 -0.153711 153 0 76
-0.047796 -0.518462 0.313826 204 51 127
0.287762 0.036434 0.102376 76 153 0
-0.265036 0.137200 0.245976 153 0 76
0.287762 -0.449738 -0.296209 76 153 0
-0.000315 -0.504118 0.099166 153 76 0
0.281943 0.016851 0.250273 76 153 0
0.285292 0.316351 -0.276845 255 0 0
-0.052411 -0.509937 -0.059636 153 76 0
0.247608 -0.509937 -0.196690 153 76 0
0.057686 0.316351 -0.498995 255 0 0
-0.020625 0.316351 -0.175980 255 0 0
0.297766 -0.520364 0.327174 0 255 0
-0.265036 -0.298014 -0.278128 153 0 76
0.106159 -0.395576 -0.307088 153 0 76
-0.545600 0.316351 0.380878 255 0 0
0.095085 -0.509937 0.030422 153 76 0
-0.270855 -0.341070 -0.136663 153 0 76
-0.259217 -0.526596 -0.110129 153 0 76
-0.620864 0.316351 0.549153 255 0 0
-0.270855 0.192451 0.220537 153 0 76
-0.263479 0.281437 0.430126 255 0 0
-0.448239 0.281437 -0.054474 255 0 0
-0.560715 0.316351 0.280547 255 0 0
-0.610988 0.316351 -0.197260 255 0 0
0.287762 -0.464264 -0.260226 76 153 0
-0.168807 0.281437 0.000511 255 0 0
-0.492262 0.281437 0.142870 255 0 0
0.354593 0.281437 -0.118439 255 0 0
0.205646 -0.507999 -0.301270 153 76 0
-0.202133 0.281437 -0.453431 255 0 0
-0.208915 0.281437 -0.144219 255 0 0
-0.269566 0.033581 -0.330364 0 255 0
0.511398 0.281437 0.109674 255 0 0
0.287762 -0.415939 0.287429 76 153 0
0.281943 -0.072121 -0.216469 76 153 0
-0.383598 0.281437 0.200833 255 0 0
-0.284263 -0.530031 -0.303040 0 255 0
-0.240386 -0.050854 0.354895 127 127 0
-0.265036 -0.325672 0.276683 153 0 76
0.277221 -0.497202 -0.228794 0 255 0
-0.370416 0.281437 -0.415984 255 0 0
0.286382 0.316351 0.177887 255 0 0
-0.090615 0.281437 -0.322949 153 76 0
0.047536 -0.504118 -0.212185 153 76 0
0.582632 0.281437 -0.228751 255 0 0
-0.093136 0.281437 0.019965 255 0 0
0.281943 -0.290747 0.225944 76 153 0
-0.128803 0.316351 0.457458 255 0 0
-0.270855 -0.214556 0.316206 153 0 76
0.281943 -0.239049 0.222841 76 153 0
0.000894 0.242628 -0.301270 153 76 0
-0.265036 0.193783 0.255450 153 0 76
-0.038826 0.316351 -0.077017 255 0 0
0.064703 -0.528402 0.291790 0 0 255
-0.527939 0.316351 0.470356 255 0 0
0.287762 0.197120 -0.284695 76 153 0
-0.078476 -0.504118 -0.269881 153 76 0
-0.072612 -0.267040 0.332993 76 0 153
-0.350998 0.281437 -0.465995 255 0 0
0.038985 -0.509937 0.228085 153 76 0
-0.617802 0.316351 -0.091115 255 0 0
0.129870 0.281437 0.043307 255 0 0
-0.133958 0.316351 0.504072 255 0 0
-0.265036 -0.053120 0.146866 153 0 76
-0.384316 0.316351 -0.604181 255 0 0
0.281943 -0.260518 0.192962 76 153 0
-0.222958 -0.380354 -0.307088 153 0 76
0.112274 0.281437 -0.247742 255 0 0
0.101049 0.103057 0.338812 76 0 153
0.319083 0.281437 -0.105320 255 0 0
0.902782 0.281437 -0.113561 255 0 0
0.281943 0.123843 0.319716 76 153 0
0.254347 0.316351 -0.301051 255 0 0
-0.697350 0.316351 0.445435 255 0 0
0.140179 -0.168792 0.338812 76 0 153
0.192477 -0.509937 0.165045 153 76 0
0.280394 0.279888 -0.227829 76 0 153
0.305219 -0.284801 -0.311311 0 127 127
0.534127 0.316351 -0.263718 255 0 0
-0.085407 0.281437 0.497097 255 0 0
-0.295900 0.281437 -0.603808 255 0 0
-0.723536 0.299908 0.424745 255 0 0
-0.435393 0.281437 0.196333 255 0 0
-0.265036 -0.409231 0.306215 153 0 76
0.281943 -0.362438 0.109321 76 153 0
0.382765 0.281437 -0.380376 255 0 0
-0.662391 0.316351 -0.525360 255 0 0
0.281943 0.018235 -0.060127 76 153 0
0.163115 -0.295701 0.338812 76 0 153
-0.016794 0.281437 -0.424613 255 0 0
-0.055577 -0.414931 -0.312907 153 0 76
-0.201595 0.281437 0.622334 255 0 0
0.298950 0.060900 0.356269 127 0 127
0.878961 0.281437 -0.174071 255 0 0
0.219513 -0.509937 0.224527 153 76 0
-0.755084 0.281437 -0.034305 255 0 0
0.275063 0.316351 -0.424548 255 0 0
0.335543 0.316351 0.099737 255 0 0
-0.288312 0.181186 0.345293 127 127 0
-0.275591 0.281437 -0.338344 255 0 0
0.275497 0.148010 -0.330364 0 127 127
0.146514 -0.509937 -0.210413 153 76 0
0.810679 0.281437 0.099209 255 0 0
-0.374303 0.281437 0.272233 255 0 0
-0.241699 -0.104557 -0.330303 0 255 0
-0.054851 0.316351 -0.303327 255 0 0
-0.288312 0.252339 -0.051096 76 0 153
0.865664 0.291485 0.224083 255 0 0
0.174765 0.316351 -0.343716 255 0 0
0.276124 -0.526718 -0.218187 0 255 0
-0.282999 -0.544344 0.152836 153 0 76
-0.387679 0.281437 0.360534 255 0 0
-0.285139 -0.495126 0.140528 153 0 76
0.283600 -0.544850 0.348870 127 0 127
-0.146735 0.316351 0.482600 255 0 0
0.132920 -0.509937 0.248048 153 76 0
0.657549 0.316351 -0.081112 255 0 0
0.216751 0.316351 -0.249349 255 0 0
-0.388216 0.281437 0.379315 255 0 0
0.020351 -0.504118 0.274187 153 76 0
-0.209279 0.316351 -0.278291 255 0 0
-0.259217 -0.518615 0.190938 153 0 76
-0.063961 -0.539031 -0.216315 204 51 127
0.493177 0.316351 0.286426 255 0 0
-0.439660 0.316351 0.255632 255 0 0
0.027480 -0.509937 0.200512 153 76 0
0.287762 -0.316805 0.070640 76 153 0
-0.164526 -0.509937 0.253541 153 76 0
0.219825 0.316351 -0.297484 255 0 0
0.263672 0.061601 -0.330364 0 127 127
-0.236089 0.085344 -0.324693 0 255 0
-0.720868 0.281437 -0.081993 255 0 0
0.520558 0.316351 0.222986 255 0 0
-0.013917 -0.370471 -0.312907 153 0 76
-0.270855 -0.068262 0.025718 153 0 76
0.095551 0.316351 -0.257994 255 0 0
-0.288312 -0.252416 -0.321201 0 255 0
-0.485188 0.316351 0.653702 255 0 0
0.193109 0.316351 -0.223123 255 0 0
-0.304648 0.281437 0.090937 255 0 0
-0.657217 0.281437 -0.429951 255 0 0
-0.405588 0.281437 0.278036 255 0 0
-0.577153 0.281437 0.247914 255 0 0
-0.055053 -0.060470 0.338812 76 0 153
0.399606 0.316351 -0.055233 255 0 0
-0.259217 -0.525046 -0.235326 153 0 76
0.281943 -0.068580 -0.260964 76 153 0
-0.085625 0.281437 -0.540620 255 0 0
0.064703 -0.519157 -0.239200 0 0 255
0.685577 0.316351 -0.040223 255 0 0
0.032635 0.281437 -0.011134 255 0 0
0.069492 0.316351 0.537681 255 0 0
-0.265036 -0.191508 0.240728 153 0 76
0.275816 -0.509937 -0.048713 153 76 0
0.782965 0.301106 -0.232434 255 0 0
-0.603558 0.316351 0.582968 255 0 0
0.281943 0.092305 0.219497 76 153 0
0.109273 -0.164214 0.332993 76 0 153
-0.164432 -0.428112 -0.312907 153 0 76
0.117073 -0.521501 0.117019 0 0 255
-0.002849 0.281437 0.071678 255 0 0
-0.079869 -0.504118 -0.293524 153 76 0
0.590246 0.316351 0.297315 255 0 0
-0.410600 0.316351 0.454508 255 0 0
-0.399940 0.316351 0.544586 255 0 0
-0.079382 0.281437 -0.448634 255 0 0
-0.087790 -0.153115 0.338812 76 0 153
0.253897 -0.065991 -0.306039 0 127 127
0.162302 -0.504118 0.179555 153 76 0
-0.183034 -0.504118 -0.048677 153 76 0
0.274426 0.175631 -0.330364 0 127 127
-0.283982 -0.028962 -0.328875 0 255 0
0.064703 -0.521932 -0.112700 0 0 255
0.287762 0.193878 -0.228910 76 153 0
-0.288312 -0.503051 -0.255133 153 0 76
-0.644039 0.281437 0.405506 255 0 0
0.867992 0.281437 0.174858 255 0 0
-0.058740 -0.539031 -0.263615 204 51 127
0.212883 0.259824 -0.301270 153 76 0
-0.270855 0.211112 0.221075 153 0 76
-0.270855 -0.389669 0.272873 153 0 76
-0.265036 0.004949 -0.169797 153 0 76
0.287762 -0.276003 0.145386 76 153 0
-0.270855 -0.124272 -0.097589 153 0 76
-0.714773 0.316351 -0.090855 255 0 0
0.945300 0.295167 0.151119 255 0 0
-0.265036 0.010027 0.198746 153 0 76
-0.133376 0.152315 -0.307088 153 0 76
-0.125607 0.316351 -0.086322 255 0 0
0.737352 0.316351 -0.052568 255 0 0
0.066712 -0.520306 0.356269 76 0 153
0.089936 -0.539031 -0.291747 0 0 255
-0.259217 0.236544 -0.032117 76 0 153
-0.436581 0.316351 0.044407 255 0 0
-0.539718 0.316351 -0.176212 255 0 0
0.065843 0.281437 0.048758 255 0 0
0.281943 -0.303220 0.055868 76 153 0
0.939719 0.281437 0.017798 255 0 0
0.107403 0.316351 0.419818 255 0 0
-0.116504 0.316351 -0.594711 255 0 0
0.305219 -0.276494 0.340341 127 0 127
0.264180 -0.087524 -0.301270 0 127 127
0.005817 0.281437 0.409572 255 0 0
-0.112489 0.162407 0.338812 76 0 153
0.281943 -0.204939 -0.187529 76 153 0
-0.270855 0.193448 0.085527 153 0 76
-0.180221 0.228878 -0.307088 153 0 76
0.111205 -0.509937 0.074846 0 0 255
0.287762 -0.194968 0.290260 76 153 0
0.193176 -0.485380 0.332993 76 0 153
0.281943 0.019916 -0.182593 76 153 0
0.375801 0.316351 -0.267718 255 0 0
-0.270855 -0.256447 -0.274422 153 0 76
-0.064945 0.316351 0.412680 255 0 0
-0.270855 -0.365497 -0.051242 153 0 76
-0.265036 0.070632 -0.110822 153 0 76
-0.265036 -0.263121 0.208075 153 0 76
-0.367960 0.281437 -0.181170 255 0 0
0.076576 0.281437 -0.221504 255 0 0
0.281943 -0.327781 -0.068486 76 153 0
-0.634322 0.316351 -0.237470 255 0 0
-0.259217 0.239204 0.263727 76 0 153
0.180617 0.281437 -0.310708 255 0 0
-0.186160 0.281437 0.004529 255 0 0
0.073533 0.316351 0.321023 255 0 0
-0.095380 -0.452029 -0.307088 153 0 76
-0.284133 -0.242427 0.354629 127 127 0
-0.699467 0.316351 -0.004417 255 0 0
-0.299538 0.316351 0.021759 255 0 0
0.252848 -0.494506 -0.323510 0 127 127
-0.276696 0.229067 -0.034319 76 0 153
0.129967 0.281437 -0.100755 255 0 0
-0.741894 0.281437 -0.262191 255 0 0
0.288334 -0.492480 -0.138009 0 255 0
0.216864 0.005001 -0.312907 153 0 76
0.240805 -0.279385 -0.312907 153 0 76
-0.014651 0.047500 0.332993 76 0 153
0.272563 -0.509937 -0.082567 153 76 0
-0.320352 0.316351 -0.041786 255 0 0
0.555228 0.316351 0.196757 255 0 0
-0.265036 -0.348237 -0.292745 153 0 76
-0.265036 -0.419515 0.032067 153 0 76
0.305219 0.245304 0.130954 76 0 153
0.204277 -0.509937 -0.158034 153 76 0
-0.642282 0.316351 0.122770 255 0 0
-0.270855 -0.276058 -0.118886 153 0 76
-0.265192 0.064264 -0.301270 153 0 76
-0.018105 0.272003 0.327174 153 0 76
0.287762 -0.314751 0.143239 76 153 0
-0.267158 0.008335 0.327174 127 127 0
-0.194361 -0.504118 0.037032 153 76 0
0.090217 -0.490849 -0.312907 153 0 76
-0.219870 0.281437 0.036238 255 0 0
0.007618 0.281437 -0.409775 255 0 0
-0.622733 0.316351 0.613650 255 0 0
0.254324 -0.495064 -0.305612 0 127 127
-0.265036 -0.416349 -0.222656 153 0 76
0.281943 -0.059572 -0.001640 76 153 0
-0.170387 0.087760 0.332993 76 0 153
0.063079 -0.499922 -0.301270 255 0 0
0.581067 0.281437 0.231626 255 0 0
0.281943 -0.483040 -0.187144 76 153 0
0.280236 0.230774 0.012224 76 0 153
-0.265036 -0.136044 0.289094 153 0 76
-0.370508 0.316351 0.200935 255 0 0
-0.599317 0.281437 -0.359336 255 0 0
-0.510860 0.316351 -0.118290 255 0 0
0.278235 -0.541142 0.174284 0 255 0
0.281943 -0.005459 0.022142 76 153 0
-0.083832 0.281437 -0.283302 255 0 0
-0.675693 0.316351 0.346704 255 0 0
-0.278267 0.229067 0.249067 76 0 153
0.116517 0.272957 -0.330364 153 76 0
-0.200090 -0.483042 0.332993 76 0 153
0.465654 0.316351 0.005237 255 0 0
0.823851 0.281437 -0.138760 255 0 0
-0.215986 0.281437 0.351984 255 0 0
0.281943 -0.237963 -0.185503 76 153 0
0.462208 0.281437 0.193633 255 0 0
-0.051446 0.281437 -0.556164 255 0 0
0.254280 0.281437 0.090236 255 0 0
0.173842 0.158402 0.332993 76 0 153
-0.067514 0.281437 0.083996 255 0 0
-0.051301 0.235851 -0.330364 153 76 0
-0.121924 -0.168349 -0.307088 153 0 76
0.106003 -0.359601 0.338812 76 0 153
0.201374 -0.386776 -0.312907 153 0 76
0.732099 0.316351 -0.172044 255 0 0
-0.060734 -0.504118 0.192270 153 76 0
-0.581648 0.316351 -0.541737 255 0 0
-0.069529 -0.480399 -0.307088 153 0 76
0.287762 0.040179 -0.239774 76 153 0
0.123448 -0.502883 0.356269 76 0 153
-0.000008 -0.509937 0.039780 153 76 0
-0.570480 0.316351 -0.363698 255 0 0
-0.151753 0.316351 -0.556514 255 0 0
0.590824 0.281437 0.048329 255 0 0
0.144338 -0.095880 -0.312907 153 0 76
0.168911 -0.504118 -0.089555 153 76 0
-0.270855 -0.339169 0.219497 153 0 76
-0.063040 -0.504118 0.256998 153 76 0
0.141513 -0.504118 0.111229 153 76 0
-0.332950 0.281437 0.265067 255 0 0
0.161886 0.281437 -0.372145 255 0 0
0.262519 0.316351 0.056361 255 0 0
-0.265036 -0.011645 0.256495 153 0 76
-0.063049 -0.003380 0.332993 76 0 153
0.127782 -0.135492 -0.307088 153 0 76
0.275404 -0.223798 -0.330364 0 127 127
0.281943 0.132335 -0.074462 76 153 0
-0.114266 0.281437 0.049710 255 0 0
-0.028929 -0.177554 0.332993 76 0 153
-0.299489 0.316351 0.506829 255 0 0
0.281943 0.101625 -0.280523 76 153 0
0.091756 0.281437 0.008881 255 0 0
0.459263 0.316351 0.358748 255 0 0
0.150497 -0.393002 -0.312907 153 0 76
-0.267439 -0.375657 -0.330364 0 255 0
0.029414 0.226327 0.332993 76 0 153
-0.149694 -0.414203 -0.307088 153 0 76
-0.098611 0.316351 -0.557471 255 0 0
-0.322373 0.281437 0.593325 255 0 0
0.140926 -0.504118 -0.106199 153 76 0
-0.264637 -0.537961 0.356269 127 127 0
-0.270855 -0.317937 -0.286650 153 0 76
0.237529 -0.544850 0.334160 76 0 153
-0.265036 -0.344655 -0.084624 153 0 76
-0.167715 -0.465002 0.338812 76 0 153
0.289059 -0.443952 0.327174 127 0 127
0.281943 -0.152509 -0.129884 76 153 0
-0.311510 0.295776 -0.637275 255 0 0
-0.420190 0.316351 -0.599611 255 0 0
0.074060 -0.504301 0.356269 76 0 153
-0.270855 -0.285951 0.264149 153 0 76
-0.265036 -0.352543 -0.065614 153 0 76
-0.052839 -0.344243 0.332993 76 0 153
-0.265036 0.142216 0.168963 153 0 76
-0.608114 0.281437 0.211617 255 0 0
-0.365460 0.316351 -0.271734 255 0 0
-0.265036 -0.037470 0.287524 153 0 76
0.019360 0.281437 -0.281253 255 0 0
-0.327643 0.281437 -0.442206 255 0 0
0.202517 -0.372856 0.338812 76 0 153
-0.089015 0.316351 -0.431869 255 0 0
-0.028440 -0.504118 -0.162160 153 76 0
0.233646 0.316351 -0.283644 255 0 0
0.597769 0.281437 -0.296040 255 0 0
0.287762 -0.054051 0.026229 76 153 0
-0.579853 0.316351 0.461353 255 0 0
0.346957 0.281437 -0.399062 255 0 0
-0.544336 0.316351 0.046695 255 0 0
0.124610 -0.504118 0.271776 153 76 0
-0.365374 0.281437 -0.562038 255 0 0
0.772626 0.281437 0.086606 255 0 0
-0.269929 -0.169637 -0.330364 0 255 0
0.064885 -0.233955 -0.307088 153 0 76
-0.288312 0.240515 0.080790 76 0 153
0.000897 0.281437 -0.442106 255 0 0
-0.418448 0.316351 -0.399566 255 0 0
-0.249366 0.172947 0.327174 127 127 0
0.292611 0.281437 0.335183 255 0 0
0.285861 -0.492480 0.274455 76 153 0
-0.662646 0.281437 0.237197 255 0 0
-0.146174 -0.045187 0.338812 76 0 153
-0.279001 -0.122104 0.175296 204 51 127
-0.220035 -0.233837 0.338812 76 0 153
0.173251 -0.214237 -0.307088 153 0 76
-0.410535 0.281437 0.578650 255 0 0
0.059760 -0.509937 0.218148 153 76 0
0.281943 -0.197980 0.027768 76 153 0
0.281943 0.168733 -0.205579 76 153 0
-0.291162 0.281437 -0.376378 255 0 0
0.305219 -0.181215 0.339633 127 0 127
0.398568 0.316351 0.197943 255 0 0
-0.731042 0.316351 0.219510 255 0 0
0.281943 -0.115672 0.202433 76 153 0
-0.270337 -0.492480 0.205093 153 0 76
0.012253 0.290647 0.577577 255 0 0
0.945300 0.284990 0.084373 255 0 0
-0.381431 0.316351 0.247900 255 0 0
0.484515 0.281437 0.009789 255 0 0
0.018866 0.281437 0.133529 255 0 0
0.287762 -0.002208 0.248696 76 153 0
0.300607 0.182252 -0.329157 0 127 127
-0.355403 0.281437 0.374872 255 0 0
0.300774 0.280063 0.174982 76 0 153
0.452049 0.281437 0.335379 255 0 0
-0.566525 0.316351 -0.248836 255 0 0
0.007727 0.275146 -0.301270 153 76 0
0.370592 0.316351 -0.122700 255 0 0
-0.235941 -0.052489 -0.316087 0 255 0
-0.517573 0.316351 0.315161 255 0 0
0.287762 0.099134 -0.203648 76 153 0
0.403665 0.281437 -0.264693 255 0 0
0.197102 -0.095362 -0.312907 153 0 76
-0.691565 0.316351 -0.505806 255 0 0
-0.217017 -0.494283 -0.305285 255 0 0
0.208142 -0.346466 0.338812 76 0 153
-0.278349 0.281437 -0.105236 255 0 0
-0.211265 0.143904 -0.307088 153 0 76
0.026753 0.316351 0.307627 255 0 0
-0.369726 0.281437 0.542985 255 0 0
0.298376 0.316351 -0.245163 255 0 0
-0.122950 0.316351 0.070077 255 0 0
0.780079 0.281437 0.182001 255 0 0
0.281943 -0.234773 0.156862 76 153 0
-0.510058 0.281437 0.110246 255 0 0
-0.265036 -0.343983 -0.155014 153 0 76
0.668254 0.316351 0.117725 255 0 0
0.004157 -0.145119 0.338812 76 0 153
-0.265036 -0.328472 -0.258606 153 0 76
-0.681405 0.291801 -0.536072 255 0 0
-0.270855 0.050189 0.312653 153 0 76
0.281943 -0.304081 0.247862 76 153 0
0.215008 -0.509937 0.158970 153 76 0
0.295522 0.281437 0.057560 76 0 153
0.080557 0.316351 -0.213490 255 0 0
0.053382 -0.509937 -0.075266 153 76 0
-0.100166 -0.522270 -0.287216 204 51 127
0.945300 0.313452 0.166954 255 0 0
-0.223723 -0.504118 0.294302 153 76 0
-0.152482 -0.504118 0.315614 153 76 0
0.812287 0.316351 0.168884 255 0 0
-0.423359 0.281437 0.289946 255 0 0
0.065344 -0.515115 0.276144 0 0 255
-0.192533 -0.504118 0.285622 153 76 0
-0.270855 -0.259458 0.068323 153 0 76
0.305219 -0.533853 0.167801 0 255 0
-0.598633 0.281437 0.584077 255 0 0
0.056010 0.281437 0.335248 153 0 76
-0.265036 0.129169 0.274021 153 0 76
-0.150142 -0.236232 -0.312907 153 0 76
-0.020949 0.281437 -0.011682 255 0 0
0.251053 0.316351 0.087614 255 0 0
-0.011860 0.281437 -0.249127 255 0 0
-0.270855 0.141873 0.209227 153 0 76
0.281943 -0.234997 -0.255447 76 153 0
0.744737 0.281437 -0.056519 255 0 0
-0.255037 -0.491369 -0.330364 0 255 0
-0.289455 0.316351 0.305678 255 0 0
-0.023206 0.316351 -0.323530 255 0 0
0.117073 -0.521935 -0.248172 0 0 255
-0.265036 -0.147066 0.061136 153 0 76
-0.120336 0.237760 0.327174 153 0 76
-0.037861 0.281437 -0.132065 255 0 0
0.378151 0.281437 -0.166189 255 0 0
-0.684596 0.281437 -0.353028 255 0 0
-0.002618 -0.509937 -0.189986 153 76 0
0.095139 -0.504118 0.262891 153 76 0
0.453884 0.281437 -0.296431 255 0 0
-0.076813 -0.539031 0.133930 204 51 127
-0.370140 0.316351 -0.440132 255 0 0
-0.281192 -0.541165 0.327174 127 127 0
-0.520084 0.316351 0.499981 255 0 0
-0.265036 0.104404 -0.284549 153 0 76
-0.210042 -0.529935 0.327174 76 0 153
0.031619 -0.468450 0.332993 76 0 153
0.042050 0.316351 -0.046615 255 0 0
0.178347 0.281437 -0.378663 255 0 0
0.206446 0.316351 0.228039 255 0 0
0.281943 0.063371 -0.188619 76 153 0
-0.765920 0.316351 -0.102702 255 0 0
0.287762 0.210635 -0.070886 76 153 0
-0.116845 0.281437 -0.492328 255 0 0
-0.265036 -0.030636 -0.105722 153 0 76
-0.237675 -0.465674 -0.326279 0 255 0
-0.126769 0.281437 0.251059 255 0 0
-0.232561 0.271749 -0.301270 153 76 0
-0.503354 0.305561 -0.637275 255 0 0
0.217575 0.281437 0.210163 255 0 0
0.081242 -0.504118 -0.285406 153 76 0
-0.060993 -0.042932 0.332993 76 0 153
0.074573 -0.509937 0.025965 153 76 0
-0.288312 0.238173 -0.021324 76 0 153
0.303086 0.232753 -0.206534 76 0 153
-0.267789 -0.475024 -0.330364 0 255 0
-0.265036 0.045646 0.264618 153 0 76
-0.206270 0.316351 -0.397202 255 0 0
0.466902 0.281437 -0.327207 255 0 0
-0.288312 -0.528829 0.033690 153 0 76
-0.270855 -0.378758 0.015243 153 0 76
-0.265036 -0.469835 -0.208980 153 0 76
0.124463 -0.437034 -0.307088 153 0 76
0.049147 -0.301668 -0.312907 153 0 76
0.083859 -0.504118 -0.030363 153 76 0
0.386706 0.281437 0.180554 255 0 0
-0.664247 0.316351 -0.371467 255 0 0
0.167479 0.281437 -0.024358 255 0 0
0.757765 0.281437 0.122175 255 0 0
0.305219 0.046355 0.338940 127 0 127
-0.265036 -0.282361 -0.049816 153 0 76
-0.276873 0.281437 0.078016 76 0 153
-0.276760 0.229067 -0.252373 76 0 153
-0.146751 0.281437 0.164518 255 0 0
-0.270855 0.035690 0.079644 153 0 76
-0.184909 -0.504118 0.194317 153 76 0
0.267768 0.281437 0.061009 255 0 0
0.305219 -0.485916 0.333316 127 0 127
-0.278523 -0.244078 0.327174 127 127 0
0.291218 0.229067 0.107269 76 0 153
0.287762 0.073465 -0.222773 76 153 0
-0.070081 0.281437 0.580168 255 0 0
0.013419 0.204658 0.332993 76 0 153
0.262022 0.281437 0.240973 255 0 0
0.028642 -0.463902 -0.307088 153 0 76
-0.177962 0.316351 0.497080 255 0 0
-0.265036 0.135780 0.012356 153 0 76
-0.001266 0.316351 0.060200 255 0 0
-0.625898 0.316351 0.225558 255 0 0
-0.241364 0.316351 0.254517 255 0 0
-0.218668 -0.509937 -0.238503 153 76 0
0.043319 -0.509937 0.042641 153 76 0
-0.265036 0.201620 -0.193254 153 0 76
0.287762 -0.223638 0.132974 76 153 0
0.287762 -0.301290 -0.257655 76 153 0
-0.028515 0.271159 -0.301270 153 76 0
-0.265036 -0.032747 -0.158449 153 0 76
-0.270855 -0.445771 0.059555 153 0 76
0.276124 0.253147 0.037060 76 0 153
-0.288312 0.104932 -0.321864 0 255 0
-0.270855 -0.202468 0.291767 153 0 76
-0.288312 0.245383 -0.290153 76 0 153
0.678209 0.316351 -0.258631 255 0 0
-0.242870 -0.509937 -0.257839 153 76 0
0.494594 0.316351 -0.113034 255 0 0
-0.270855 -0.433782 0.202177 153 0 76
-0.519017 0.316351 0.025890 255 0 0
0.042476 -0.504118 -0.088432 153 76 0
-0.105386 -0.490895 -0.312907 153 0 76
-0.100166 -0.520425 0.035637 204 51 127
0.001776 0.088073 -0.312907 153 0 76
-0.730361 0.281437 -0.324866 255 0 0
0.281943 -0.141277 0.117854 76 153 0
-0.721154 0.298232 -0.408350 255 0 0
0.760091 0.281437 0.017175 255 0 0
0.612543 0.316351 0.227232 255 0 0
0.281943 -0.478831 0.154798 76 153 0
0.281943 -0.243186 0.106833 76 153 0
0.273683 0.281437 0.041422 255 0 0
0.287762 -0.261771 -0.101558 76 153 0
-0.025739 0.228831 -0.312907 153 0 76
-0.334464 0.316351 -0.532485 255 0 0
-0.511726 0.316351 -0.623312 255 0 0
-0.090915 0.316351 -0.289202 255 0 0
-0.523708 0.281437 -0.467155 255 0 0
0.106110 -0.504118 -0.063723 153 76 0
-0.270855 0.073771 0.284515 153 0 76
-0.117466 0.120855 0.332993 76 0 153
0.287762 -0.119820 0.139966 76 153 0
0.167591 0.281437 -0.478568 255 0 0
0.451247 0.316351 0.246968 255 0 0
-0.047796 -0.527778 -0.075464 204 51 127
-0.604368 0.295845 0.641352 255 0 0
-0.270855 -0.061656 0.251773 153 0 76
-0.694101 0.281437 0.184443 255 0 0
0.037402 -0.504118 0.007633 153 76 0
-0.160543 0.190533 0.332993 76 0 153
0.524717 0.316351 0.182884 255 0 0
0.244245 0.316351 0.054862 255 0 0
-0.100166 -0.528892 -0.063573 204 51 127
-0.270519 0.316351 -0.076606 255 0 0
-0.072123 -0.343285 -0.312907 153 0 76
0.201367 0.281437 0.349156 153 0 76
-0.265036 -0.006555 0.305630 153 0 76
0.298091 -0.299941 0.356269 127 0 127
0.303740 0.316351 0.280511 255 0 0
-0.039957 0.172396 -0.312907 153 0 76
-0.245557 0.316351 -0.002935 255 0 0
0.304329 0.233996 -0.090247 76 0 153
0.281943 -0.073228 0.198975 76 153 0
0.240766 -0.415448 0.338812 76 0 153
-0.240333 0.053177 -0.302697 0 255 0
0.199963 0.281437 -0.348528 255 0 0
-0.265036 -0.368047 -0.250841 153 0 76
0.502648 0.281437 0.232844 255 0 0
-0.114118 0.316351 -0.341749 255 0 0
0.838157 0.316351 0.230596 255 0 0
-0.015944 0.281437 -0.319389 153 76 0
-0.270855 -0.309323 0.012473 153 0 76
-0.018804 0.156832 0.338812 76 0 153
0.231538 -0.198745 0.332993 76 0 153
0.281943 -0.160666 -0.227521 76 153 0
-0.265036 0.217792 0.035650 153 0 76
0.287762 -0.251429 -0.264826 76 153 0
-0.270855 -0.320686 0.198858 153 0 76
-0.013918 0.281437 0.027315 255 0 0
-0.251579 0.281437 0.410317 255 0 0
0.203453 0.316351 0.153701 255 0 0
-0.265036 -0.047710 0.233061 153 0 76
0.281943 -0.178501 0.118848 76 153 0
0.104214 -0.381617 0.332993 76 0 153
-0.075799 -0.509937 0.094062 204 51 127
0.232588 0.316351 0.466401 255 0 0
-0.357542 0.316351 0.328890 255 0 0
-0.214742 0.178169 -0.312907 153 0 76
0.287762 -0.271820 -0.035272 76 153 0
-0.026429 -0.154583 0.338812 76 0 153
-0.304941 0.281437 -0.411080 255 0 0
-0.658899 0.281437 -0.198119 255 0 0
-0.270855 -0.411550 0.004856 153 0 76
0.281943 0.048718 -0.105447 76 153 0
0.836277 0.281437 0.152904 255 0 0
0.276124 -0.507787 -0.116978 153 76 0
-0.265036 0.195929 -0.143103 153 0 76
-0.270855 -0.182814 -0.065174 153 0 76
0.130717 0.316351 0.486935 255 0 0
-0.213522 -0.510853 -0.330364 255 0 0
-0.600020 0.315696 0.643585 255 0 0
0.272738 -0.231005 0.356269 127 0 127
0.076363 0.281437 -0.283165 255 0 0
-0.127525 -0.434788 0.338812 76 0 153
0.281943 0.212292 0.109928 76 153 0
-0.247846 0.316351 0.086682 255 0 0
-0.361521 0.281437 0.091053 255 0 0
0.247150 0.281437 0.447397 255 0 0
-0.033858 0.281437 0.002349 255 0 0
-0.572614 0.281437 0.167583 255 0 0
0.070144 -0.538653 0.194088 0 0 255
-0.270921 -0.544850 0.198197 153 0 76
0.758792 0.316351 0.206172 255 0 0
0.191813 0.128734 -0.312907 153 0 76
0.101454 0.281437 -0.106966 255 0 0
0.275980 0.316351 0.085461 255 0 0
-0.270855 0.021950 0.301988 153 0 76
-0.152445 0.316351 -0.591868 255 0 0
-0.180119 0.281437 -0.133909 255 0 0
0.276124 0.251466 0.249568 76 0 153
-0.132310 -0.504118 0.068322 153 76 0
-0.453354 0.281437 0.558927 255 0 0
0.342699 0.316351 0.130921 255 0 0
0.361157 0.316351 0.117040 255 0 0
0.287762 0.127589 0.085350 76 153 0
-0.618103 0.281437 -0.290847 255 0 0
0.107424 -0.498438 0.356269 76 0 153
-0.284270 -0.544346 -0.328587 0 255 0
-0.715660 0.281437 -0.287070 255 0 0
0.287762 -0.441454 -0.132422 76 153 0
0.232664 0.281437 -0.179293 255 0 0
0.698685 0.281437 0.273004 255 0 0
0.276124 0.259958 -0.255930 76 0 153
0.059299 0.316351 0.285657 255 0 0
-0.094864 -0.509937 0.124992 153 76 0
-0.264660 -0.492856 -0.071850 153 0 76
0.176087 -0.207497 0.332993 76 0 153
-0.636128 0.281437 -0.307921 255 0 0
-0.661251 0.316351 -0.294058 255 0 0
0.062776 -0.519820 0.327174 76 0 153
0.287762 0.073457 -0.164061 76 153 0
0.204643 0.281437 0.052556 255 0 0
0.287762 -0.236180 -0.162899 76 153 0
0.184721 0.316351 -0.126444 255 0 0
-0.695161 0.281437 0.226778 255 0 0
0.096635 -0.509937 -0.230266 153 76 0
0.021591 0.281437 -0.046326 255 0 0
0.287762 -0.087215 0.264753 76 153 0
-0.305927 0.316351 0.091448 255 0 0
-0.516204 0.316351 -0.270860 255 0 0
-0.494174 0.281437 -0.328256 255 0 0
-0.270855 -0.089874 -0.108594 153 0 76
-0.597738 0.281437 -0.078581 255 0 0
-0.611044 0.281437 0.130706 255 0 0
-0.675214 0.316351 0.123578 255 0 0
-0.100702 -0.504118 -0.080773 153 76 0
-0.259217 -0.527773 0.066173 153 0 76
-0.175589 0.316351 -0.313037 255 0 0
-0.265036 -0.476194 0.089084 153 0 76
-0.078914 0.281437 -0.489557 255 0 0
-0.012581 0.316351 -0.111261 255 0 0
0.014258 0.281437 0.302894 255 0 0
0.850606 0.281437 -0.112372 255 0 0
-0.270855 -0.425072 -0.044246 153 0 76
0.072148 -0.154898 -0.312907 153 0 76
-0.288312 0.248499 -0.257196 76 0 153
0.262997 -0.509937 0.084436 153 76 0
-0.401568 0.281437 0.252437 255 0 0
0.745761 0.281437 0.232230 255 0 0
0.596578 0.305042 0.335542 255 0 0
-0.270855 -0.243482 -0.035963 153 0 76
0.240819 0.025259 0.338812 76 0 153
-0.252945 0.281437 -0.240215 255 0 0
0.932881 0.316351 0.075808 255 0 0
0.035699 0.316351 -0.148905 255 0 0
-0.100166 -0.518283 -0.173261 204 51 127
-0.245370 0.211161 0.356269 127 127 0
-0.200659 0.281437 0.072853 255 0 0
0.347457 0.281437 0.030120 255 0 0
0.361583 0.316351 0.094675 255 0 0
-0.188583 0.316351 0.185569 255 0 0
0.264654 0.046981 0.327174 127 0 127
-0.116487 -0.181641 0.338812 76 0 153
0.281943 -0.021573 0.025996 76 153 0
-0.038658 -0.509937 0.288988 153 76 0
0.890092 0.316351 -0.032024 255 0 0
0.099950 -0.456230 -0.307088 153 0 76
0.287901 0.316351 0.333805 255 0 0
0.232626 0.229067 -0.310888 153 0 76
0.287762 -0.471276 0.301146 76 153 0
0.602170 0.281437 0.123880 255 0 0
-0.265036 -0.338903 0.148021 153 0 76
-0.318437 0.316351 0.514747 255 0 0
-0.676843 0.281437 -0.409385 255 0 0
-0.458199 0.316351 -0.497229 255 0 0
0.281943 -0.237649 -0.027331 76 153 0
0.818803 0.316351 -0.020171 255 0 0
0.287762 0.085447 -0.019248 76 153 0
0.276124 -0.499129 -0.285001 0 255 0
-0.065191 0.281437 -0.044363 255 0 0
-0.038715 -0.359749 0.338812 76 0 153
-0.201874 0.316351 0.151561 255 0 0
-0.136084 -0.295236 0.338812 76 0 153
-0.105454 0.100025 0.338812 76 0 153
0.536182 0.281437 -0.245369 255 0 0
0.287273 -0.479456 -0.301270 0 127 127
-0.568913 0.281437 -0.302330 255 0 0
-0.209392 0.316351 -0.180369 255 0 0
-0.216428 0.316351 0.078393 255 0 0
0.305219 -0.526392 0.270597 0 255 0
0.262347 -0.030450 0.327174 127 0 127
0.092666 -0.423139 -0.307088 153 0 76
-0.182987 0.281437 -0.474776 255 0 0
-0.219038 0.251316 0.356269 153 0 76
-0.550085 0.316351 0.488532 255 0 0
0.392778 0.301089 0.419959 255 0 0
0.521361 0.281437 0.318771 255 0 0
-0.044377 -0.542133 0.330276 76 0 153
0.080647 -0.504118 0.040334 153 76 0
-0.645478 0.281437 -0.350402 255 0 0
0.287762 -0.095315 -0.181796 76 153 0
0.306486 0.316351 -0.265780 255 0 0
0.089225 -0.068898 0.338812 76 0 153
-0.101813 0.316351 -0.004435 255 0 0
0.287762 -0.380436 0.175534 76 153 0
0.196416 0.270902 -0.301270 153 76 0
0.141920 0.281437 0.098596 255 0 0
0.215944 0.281437 -0.453556 255 0 0
-0.167619 -0.354485 -0.307088 153 0 76
0.083234 -0.509937 -0.175015 0 0 255
0.454931 0.294900 -0.368310 255 0 0
0.375169 0.316351 0.027607 255 0 0
0.792524 0.316351 0.017801 255 0 0
0.287762 -0.285668 -0.082482 76 153 0
0.252520 0.281437 -0.303958 255 0 0
-0.275941 0.316351 0.277371 255 0 0
0.019747 0.052378 -0.312907 153 0 76
0.248561 -0.509937 -0.008149 153 76 0
-0.294843 0.316351 0.324540 255 0 0
-0.751035 0.316351 0.149537 255 0 0
0.305219 0.273850 -0.198493 76 0 153
-0.252318 0.140873 0.356269 127 127 0
0.045891 0.316351 -0.180912 255 0 0
0.287762 -0.239737 -0.238892 76 153 0
0.281943 -0.145535 -0.254087 76 153 0
-0.282173 0.281437 0.195171 76 0 153
0.268351 0.281437 -0.250059 255 0 0
-0.265036 -0.091412 -0.013513 153 0 76
0.441567 0.316351 -0.182240 255 0 0
0.053481 0.142115 0.338812 76 0 153
-0.287311 -0.440268 0.351451 127 127 0
-0.474124 0.316351 -0.510739 255 0 0
0.118981 -0.015241 0.338812 76 0 153
-0.270855 0.096646 0.162969 153 0 76
-0.265036 -0.333391 -0.202983 153 0 76
0.287762 -0.479530 0.090949 76 153 0
0.838741 0.316351 -0.152387 255 0 0
-0.139999 -0.338742 0.332993 76 0 153
-0.113681 -0.000157 -0.312907 153 0 76
-0.165481 -0.363240 0.332993 76 0 153
-0.185377 -0.504118 0.161884 153 76 0
0.281943 0.027456 0.073156 76 153 0
-0.047776 0.316351 0.538171 255 0 0
0.020158 -0.030563 0.338812 76 0 153
-0.072338 0.191224 0.338812 76 0 153
-0.262294 -0.481997 -0.301270 0 255 0
-0.265036 -0.480135 0.151359 153 0 76
0.011526 0.048594 0.338812 76 0 153
0.265186 -0.113336 0.327174 127 0 127
-0.059316 -0.379342 -0.307088 153 0 76
-0.376732 0.281437 0.168095 255 0 0
-0.265796 0.281437 0.585984 255 0 0
-0.242860 0.281437 -0.153036 255 0 0
0.287762 -0.397327 0.044931 76 153 0
0.048191 -0.504118 -0.026599 153 76 0
0.252848 -0.519221 -0.317495 255 0 0
-0.235941 -0.202378 -0.313698 0 255 0
-0.569673 0.316351 0.615048 255 0 0
-0.122885 -0.314577 0.332993 76 0 153
0.287762 -0.382500 -0.241067 76 153 0
-0.753935 0.281437 0.261919 255 0 0
0.281943 -0.255450 0.123003 76 153 0
-0.202692 0.316351 0.274216 255 0 0
-0.601697 0.281437 -0.594482 255 0 0
-0.474095 0.316005 -0.637275 255 0 0
-0.480405 0.316351 0.582602 255 0 0
0.252848 -0.178146 -0.321709 0 127 127
-0.282069 -0.544850 0.309785 153 0 76
-0.612558 0.316351 0.190409 255 0 0
-0.328406 0.316351 0.412374 255 0 0
-0.418154 0.316351 0.004468 255 0 0
-0.265036 -0.066760 0.175563 153 0 76
-0.063288 -0.504118 0.066368 153 76 0
-0.580471 0.281437 -0.169688 255 0 0
-0.282520 0.065789 -0.330337 0 255 0
0.281943 -0.049718 -0.114272 76 153 0
-0.279976 -0.544850 -0.040838 153 0 76
-0.235941 -0.407307 -0.320640 0 255 0
0.006924 0.316351 -0.086387 255 0 0
0.613917 0.316351 0.265543 255 0 0
0.202433 0.316351 0.418858 255 0 0
-0.514677 0.281437 -0.155858 255 0 0
-0.265036 -0.271682 -0.270502 153 0 76
-0.612461 0.281437 0.392091 255 0 0
-0.349423 0.316351 -0.004718 255 0 0
0.281943 -0.225471 -0.220064 76 153 0
0.287762 -0.281277 -0.177060 76 153 0
-0.294543 0.281437 0.424089 255 0 0
0.265384 -0.397091 0.327174 127 0 127
0.276688 0.277321 0.356269 127 0 127
0.338977 0.316351 0.326205 255 0 0
-0.087183 0.281437 0.329167 255 0 0
-0.266255 -0.492480 -0.194587 153 0 76
-0.702812 0.281437 -0.137537 255 0 0
-0.451806 0.281437 0.428301 255 0 0
-0.270855 0.144579 -0.012724 153 0 76
0.163198 0.316351 -0.021325 255 0 0
0.102711 -0.477436 0.332993 76 0 153
0.075328 -0.539031 0.051144 0 0 255
0.062412 0.281437 0.075869 255 0 0
0.264585 -0.337256 0.327174 127 0 127
-0.048288 0.050793 0.332993 76 0 153
-0.154684 0.271373 0.356269 153 0 76
-0.265036 -0.158101 0.095283 153 0 76
-0.257480 0.281437 -0.451480 255 0 0
0.266277 0.316351 0.282524 255 0 0
-0.094254 -0.504118 0.223173 153 76 0
-0.270817 0.239802 0.356269 127 127 0
-0.042023 -0.504118 0.072562 153 76 0
-0.533802 0.281437 -0.025269 255 0 0
-0.177256 0.281437 0.459055 255 0 0
-0.406582 0.316351 -0.208936 255 0 0
0.717630 0.281437 0.188425 255 0 0
-0.300681 0.281437 0.260182 255 0 0
-0.286827 0.277103 -0.294638 76 0 153
0.084778 -0.407844 0.332993 76 0 153
0.069306 0.275366 0.327174 153 0 76
0.592088 0.316351 0.169388 255 0 0
-0.122520 0.049508 -0.312907 153 0 76
0.103599 0.316351 -0.161654 255 0 0
0.721154 0.316351 -0.223203 255 0 0
-0.024600 0.316351 0.026849 255 0 0
0.134291 0.209962 -0.307088 153 0 76
-0.262413 0.281437 0.160644 255 0 0
0.281943 0.019895 0.158209 76 153 0
-0.035816 -0.234001 0.338812 76 0 153
0.172738 0.235445 0.327174 153 0 76
0.195338 -0.504118 -0.019060 153 76 0
-0.006663 0.316351 -0.214814 255 0 0
0.375456 0.316351 0.155693 255 0 0
0.277740 0.075289 0.327174 127 0 127
0.281943 -0.168921 0.226922 76 153 0
-0.561609 0.316351 0.334200 255 0 0
0.276124 0.238355 -0.145214 76 0 153
0.056473 0.281437 0.006377 255 0 0
-0.077834 -0.504118 0.150529 153 76 0
0.208438 -0.504118 0.188982 153 76 0
-0.076034 -0.539031 0.315121 204 51 127
-0.261492 0.281437 0.545390 255 0 0
-0.288312 -0.169104 -0.321373 0 255 0
0.190019 -0.504118 0.319093 153 76 0
-0.270855 0.125258 -0.294408 153 0 76
-0.240579 0.281437 0.216809 255 0 0
0.292239 0.229067 0.249489 76 0 153
0.178688 0.316351 0.121313 255 0 0
0.460108 0.281437 0.316184 255 0 0
-0.548150 0.281437 0.260371 255 0 0
-0.231799 -0.504118 0.258676 153 76 0
-0.049027 -0.032786 -0.307088 153 0 76
0.117340 -0.014094 -0.307088 153 0 76
-0.322185 0.281437 0.525040 255 0 0
-0.156087 0.316351 0.341662 255 0 0
0.817015 0.281437 0.137933 255 0 0
-0.155484 -0.167680 0.332993 76 0 153
-0.213213 0.057625 -0.312907 153 0 76
-0.009276 -0.410710 -0.307088 153 0 76
-0.326147 0.316351 0.067772 255 0 0
0.281943 -0.203379 0.101239 76 153 0
0.287762 -0.339010 -0.162639 76 153 0
-0.265036 0.125520 -0.077081 153 0 76
-0.058209 -0.462866 0.332993 76 0 153
-0.770569 0.295488 -0.103715 255 0 0
-0.191128 0.281437 0.322654 255 0 0
0.244726 0.316351 -0.114058 255 0 0
0.104878 0.281437 -0.294650 255 0 0
-0.265036 -0.473544 0.294820 153 0 76
-0.639912 0.281437 0.518920 255 0 0
0.837092 0.281437 0.013742 255 0 0
0.281943 -0.134543 0.078124 76 153 0
0.228550 -0.504118 0.046044 153 76 0
0.260656 -0.504118 0.010492 153 76 0
0.287762 -0.424918 0.045029 76 153 0
0.067825 0.281437 0.278264 255 0 0
0.281943 0.052615 -0.076712 76 153 0
-0.270855 -0.135396 -0.044582 153 0 76
-0.246000 -0.511694 -0.330364 0 255 0
-0.551782 0.316351 0.547207 255 0 0
0.084502 0.267897 0.327174 153 0 76
0.082474 -0.504118 0.094978 153 76 0
-0.499145 0.281437 0.633717 255 0 0
0.281943 -0.457723 -0.079578 76 153 0
-0.342996 0.316351 -0.273911 255 0 0
-0.571528 0.281437 0.637980 255 0 0
-0.237031 0.281437 -0.628855 255 0 0
-0.269956 -0.521287 0.356269 127 127 0
-0.270855 -0.040591 0.251472 153 0 76
-0.712207 0.316351 0.041623 255 0 0
-0.003863 0.281437 -0.284310 255 0 0
0.124720 -0.509937 0.290946 153 76 0
-0.141742 -0.255808 0.332993 76 0 153
0.156791 0.316351 0.361165 255 0 0
-0.170139 0.281437 -0.262241 255 0 0
-0.691187 0.281437 0.521843 255 0 0
-0.254444 -0.293204 -0.330364 0 255 0
0.013924 -0.304269 -0.307088 153 0 76
-0.031236 0.281437 0.097844 255 0 0
-0.160986 -0.277694 -0.307088 153 0 76
0.040431 0.316351 0.229613 255 0 0
-0.067141 -0.539031 0.069689 204 51 127
-0.492128 0.281437 -0.440137 255 0 0
-0.147120 -0.298212 -0.307088 153 0 76
0.271133 -0.277641 -0.301270 0 127 127
0.437674 0.281437 -0.280470 255 0 0
0.110509 -0.278501 -0.307088 153 0 76
0.264075 0.281437 0.184262 255 0 0
0.079538 -0.509937 -0.093427 0 0 255
-0.270855 -0.379993 -0.279357 153 0 76
0.749348 0.316351 -0.072112 255 0 0
-0.047796 -0.526701 0.209323 204 51 127
-0.270855 0.172857 -0.007825 153 0 76
-0.024412 0.099574 -0.307088 153 0 76
-0.560225 0.281437 0.451883 255 0 0
-0.168206 0.146233 0.338812 76 0 153
0.096473 0.177073 0.332993 76 0 153
0.066042 0.177799 0.338812 76 0 153
-0.138898 -0.509937 -0.289783 153 76 0
-0.270855 -0.155945 -0.130800 153 0 76
0.380275 0.281437 0.138841 255 0 0
0.882262 0.281437 0.048312 255 0 0
-0.047796 -0.527498 0.233739 204 51 127
0.142376 0.281437 -0.182912 255 0 0
-0.367681 0.316351 0.512035 255 0 0
0.259005 0.092334 0.356269 127 0 127
0.287762 -0.282160 0.192197 76 153 0
0.820877 0.281437 0.037338 255 0 0
0.276183 0.316351 -0.239126 255 0 0
-0.151688 0.093260 -0.312907 153 0 76
-0.636068 0.316351 0.426859 255 0 0
0.096163 -0.214524 0.338812 76 0 153
0.680450 0.316351 -0.231226 255 0 0
-0.247053 -0.509937 -0.165934 153 76 0
-0.305957 0.316351 0.110613 255 0 0
-0.270855 0.020061 -0.165252 153 0 76
-0.265036 -0.258314 -0.068375 153 0 76
-0.453536 0.281437 -0.559402 255 0 0
-0.393982 0.281437 0.325294 255 0 0
-0.022605 -0.509937 0.018769 153 76 0
-0.684830 0.316351 0.188091 255 0 0
-0.489186 0.316351 0.564421 255 0 0
0.291347 -0.402847 0.356269 127 0 127
-0.540382 0.316351 0.627117 255 0 0
0.280501 0.117132 -0.301270 0 127 127
0.287762 -0.195308 -0.258667 76 153 0
-0.161774 -0.544850 -0.322759 255 0 0
-0.210834 -0.336419 0.332993 76 0 153
0.161743 -0.068736 -0.307088 153 0 76
0.252848 0.048028 -0.312870 153 0 76
0.012255 0.281437 0.222124 255 0 0
0.287762 -0.373085 -0.193913 76 153 0
-0.449179 0.316351 -0.462454 255 0 0
-0.260736 -0.540550 -0.077566 153 0 76
-0.186639 -0.449047 -0.307088 153 0 76
-0.214958 -0.509937 -0.055475 153 76 0
0.293196 -0.502613 -0.301270 0 127 127
0.498790 0.281437 -0.305384 255 0 0
-0.270855 -0.182346 0.158713 153 0 76
0.026277 0.281437 0.162887 255 0 0
-0.270855 -0.076832 0.133361 153 0 76
-0.265036 -0.207277 0.244816 153 0 76
0.188926 -0.509937 0.002498 153 76 0
0.188343 0.281437 0.115849 255 0 0
-0.037749 0.281437 0.139786 255 0 0
0.295219 -0.244322 0.327174 127 0 127
0.162462 0.064973 -0.312907 153 0 76
-0.178458 0.281437 0.243551 255 0 0
0.117073 -0.521819 -0.004051 0 0 255
-0.100166 -0.530592 0.118056 204 51 127
0.281434 0.281437 -0.343254 255 0 0
0.087949 0.281437 0.255705 255 0 0
-0.577811 0.281437 0.114904 255 0 0
0.287762 -0.071877 -0.184765 76 153 0
-0.063955 -0.527196 0.356269 76 0 153
-0.089539 0.281437 -0.365084 255 0 0
0.281943 0.051727 0.037058 76 153 0
-0.265036 -0.277895 0.287209 153 0 76
0.287762 -0.173917 -0.243329 76 153 0
-0.264360 -0.244380 -0.301270 0 255 0
-0.265036 -0.419663 -0.269134 153 0 76
-0.394258 0.281437 0.043024 255 0 0
0.271973 -0.192578 -0.301270 0 127 127
-0.265036 -0.256294 -0.114970 153 0 76
0.134948 0.316351 -0.428699 255 0 0
-0.059930 -0.092935 -0.312907 153 0 76
-0.265036 -0.204840 -0.146906 153 0 76
-0.267323 0.214663 -0.301270 0 255 0
0.382279 0.281437 0.246926 255 0 0
0.281943 -0.310286 0.190012 76 153 0
0.287762 -0.105917 0.161224 76 153 0
-0.270855 -0.439220 0.136922 153 0 76
0.100742 -0.515564 -0.301270 0 0 255
0.231326 0.281437 -0.432428 255 0 0
-0.231934 0.130952 -0.312907 153 0 76
-0.194195 0.277679 -0.303331 153 76 0
-0.268984 -0.492480 -0.256567 153 0 76
-0.027397 -0.509937 -0.220832 153 76 0
-0.364206 0.281437 -0.286566 255 0 0
0.023348 0.316351 -0.405662 255 0 0
-0.146176 0.028661 0.332993 76 0 153
-0.732230 0.316351 -0.280037 255 0 0
-0.003999 0.316351 0.019307 255 0 0
-0.632557 0.281437 0.223580 255 0 0
-0.000206 -0.438218 -0.312907 153 0 76
0.138390 0.281437 -0.428333 255 0 0
-0.022765 -0.126069 0.338812 76 0 153
0.094090 0.281437 0.300884 255 0 0
0.281943 -0.486056 -0.027475 76 153 0
-0.288312 0.263117 0.015552 76 0 153
-0.308826 0.310240 0.663180 255 0 0
-0.196123 -0.235341 0.338812 76 0 153
-0.265036 -0.102711 0.134297 153 0 76
-0.537344 0.316351 0.356364 255 0 0
-0.172515 -0.142684 0.332993 76 0 153
-0.651675 0.316351 0.590342 255 0 0
0.185124 0.088633 -0.307088 153 0 76
-0.117544 0.316351 0.129454 255 0 0
0.248433 -0.140828 0.338812 76 0 153
0.173158 0.316351 0.024627 255 0 0
-0.443933 0.316351 -0.163519 255 0 0
-0.249895 -0.504118 -0.062325 153 76 0
0.078894 0.240558 0.356269 153 0 76
-0.270855 0.055400 -0.109557 153 0 76
0.072503 -0.504118 0.320962 153 76 0
-0.131218 0.281437 -0.188190 255 0 0
-0.265036 -0.391275 0.290604 153 0 76
-0.074520 -0.379892 -0.312907 153 0 76
-0.059589 0.101709 0.332993 76 0 153
0.067723 0.316351 -0.073662 255 0 0
0.287762 -0.080558 -0.104223 76 153 0
0.478711 0.316351 0.265802 255 0 0
-0.562216 0.281437 -0.158328 255 0 0
-0.111914 0.281437 0.159086 255 0 0
0.252848 0.201165 -0.317937 0 127 127
0.176644 -0.033595 0.332993 76 0 153
-0.209860 -0.212269 -0.307088 153 0 76
0.416928 0.316351 -0.177900 255 0 0
-0.270855 -0.186023 0.317079 153 0 76
-0.286771 0.127109 0.351991 127 127 0
-0.090297 0.281437 -0.149472 255 0 0
0.281943 -0.052276 0.151483 76 153 0
0.289748 0.229067 0.085930 76 0 153
-0.268810 0.281437 0.310715 76 0 153
-0.273244 0.281437 -0.153562 255 0 0
0.617854 0.281437 -0.282181 255 0 0
0.730067 0.316351 0.134545 255 0 0
0.065247 -0.055377 0.338812 76 0 153
-0.095397 -0.539918 -0.329477 255 0 0
0.711352 0.296472 0.288001 255 0 0
-0.425066 0.281437 0.141128 255 0 0
0.280964 0.281437 0.434655 255 0 0
-0.265036 -0.465018 0.191791 153 0 76
-0.082538 -0.167155 0.332993 76 0 153
0.174377 -0.016750 -0.307088 153 0 76
0.443167 0.281437 0.272908 255 0 0
-0.247064 -0.132648 0.327174 127 127 0
0.122632 0.212244 0.338812 76 0 153
0.265245 0.281437 0.017421 255 0 0
-0.236319 0.316351 -0.099304 255 0 0
-0.047796 -0.522350 0.035277 204 51 127
0.099743 0.316351 0.301215 255 0 0
-0.133633 0.281437 -0.220723 255 0 0
-0.021037 -0.504118 0.140470 153 76 0
-0.448435 0.316351 -0.574973 255 0 0
-0.021914 -0.530017 -0.330364 255 0 0
0.657138 0.281437 -0.199374 255 0 0
-0.159039 0.293758 -0.622625 255 0 0
-0.273384 -0.544850 -0.216989 153 0 76
-0.236420 -0.270118 -0.306609 0 255 0
-0.657306 0.316351 -0.350299 255 0 0
0.470781 0.281437 -0.144973 255 0 0
-0.270855 -0.103173 0.075827 153 0 76
0.146699 0.083937 -0.307088 153 0 76
-0.539459 0.281437 -0.550667 255 0 0
0.252848 -0.480382 0.335178 76 0 153
0.161997 -0.100530 -0.307088 153 0 76
-0.571969 0.281437 0.342063 255 0 0
0.277829 0.233181 0.031636 76 0 153
-0.127370 0.014408 -0.307088 153 0 76
-0.130448 -0.509937 0.281941 153 76 0
-0.220185 -0.047279 -0.312907 153 0 76
0.352522 0.316351 -0.061869 255 0 0
-0.265036 0.067416 0.176650 153 0 76
-0.353860 0.316351 0.362179 255 0 0
0.817096 0.316351 -0.060237 255 0 0
0.121342 0.258595 0.356269 153 0 76
-0.277062 -0.544850 0.269402 153 0 76
0.408975 0.316351 -0.305971 255 0 0
0.099370 0.316351 0.525191 255 0 0
-0.033307 0.082852 0.332993 76 0 153
-0.348082 0.316351 -0.481288 255 0 0
0.015416 -0.053873 0.338812 76 0 153
-0.103621 0.281437 -0.308771 153 76 0
0.226176 0.131128 0.338812 76 0 153
-0.573744 0.281437 0.218895 255 0 0
0.188721 -0.509937 0.186332 153 76 0
0.468784 0.316351 0.295506 255 0 0
-0.265937 -0.544850 0.064432 153 0 76
0.281943 -0.440850 -0.159780 76 153 0
-0.478027 0.316351 0.058065 255 0 0
0.301237 0.176038 -0.303107 0 127 127
-0.147467 0.281437 0.285799 255 0 0
0.494835 0.281437 0.178148 255 0 0
-0.019930 -0.504118 0.312775 153 76 0
-0.235941 -0.373395 0.336435 76 0 153
-0.246146 0.007467 0.327174 127 127 0
0.281943 -0.331474 0.210338 76 153 0
0.092107 0.003973 0.332993 76 0 153
-0.265036 0.194930 0.011734 153 0 76
0.054926 0.316351 0.020294 255 0 0
-0.232189 0.025576 0.332993 76 0 153
-0.265036 -0.003928 -0.299134 153 0 76
-0.265036 -0.045823 -0.212699 153 0 76
-0.752616 0.305056 0.284009 255 0 0
0.483525 0.281437 -0.111988 255 0 0
0.091618 -0.299223 -0.307088 153 0 76
0.127552 -0.544850 -0.310536 255 0 0
-0.329118 0.316351 -0.203319 255 0 0
0.039848 0.194304 0.332993 76 0 153
0.101413 -0.504118 -0.006519 153 76 0
0.146761 -0.258716 -0.307088 153 0 76
0.290579 0.163415 -0.301270 0 127 127
0.192970 -0.492480 -0.307921 153 0 76
-0.099443 -0.531076 0.327174 76 0 153
-0.619527 0.281437 -0.569255 255 0 0
-0.229835 -0.391000 0.338812 76 0 153
-0.265036 -0.426525 -0.127669 153 0 76
0.281943 -0.393766 0.103433 76 153 0
-0.422851 0.316351 0.582408 255 0 0
0.059261 -0.251376 -0.312907 153 0 76
0.114515 0.316351 0.018100 255 0 0
-0.698130 0.281437 0.035686 255 0 0
-0.118196 0.281437 0.420738 255 0 0
0.287762 -0.293601 0.112452 76 153 0
0.897292 0.281437 -0.078288 255 0 0
0.158586 0.281437 0.291565 255 0 0
-0.422264 0.316351 0.102666 255 0 0
0.415763 0.281437 -0.198135 255 0 0
-0.492781 0.281437 0.465802 255 0 0
-0.265036 -0.201550 -0.200884 153 0 76
-0.265036 -0.408480 0.169905 153 0 76
