0.126207 -0.670730 -0.012959 0.000000 0.000000 1.000000
-0.188700 0.639186 -0.044584 1.000000 0.000000 0.000000
-0.319538 0.522479 -0.436485 0.000000 0.500000 0.500000
-0.330764 0.328914 0.127803 0.600000 0.000000 0.300000
0.164724 0.317712 -0.159449 0.600000 0.000000 0.300000
-0.354230 -0.636530 -0.492469 0.800000 0.200000 0.500000
0.484694 -0.105691 0.001058 0.300000 0.000000 0.600000
0.417496 -0.643730 0.540844 0.300000 0.000000 0.600000
-0.461617 0.317712 -0.422819 0.600000 0.000000 0.300000
-0.454764 -0.630687 -0.134527 1.000000 0.000000 0.000000
-0.060042 -0.715534 0.002003 0.000000 0.000000 1.000000
-0.523416 0.122350 -0.190138 0.600000 0.000000 0.300000
-0.557020 0.227799 -0.161980 0.600000 0.000000 0.300000
0.484694 -0.518605 0.130444 0.300000 0.000000 0.600000
0.119752 0.328914 -0.255441 0.600000 0.000000 0.300000
0.439889 -0.625718 0.422842 0.600000 0.000000 0.300000
-0.546229 -0.715534 -0.236273 0.600000 0.000000 0.300000
-0.478612 -0.362364 -0.294299 0.800000 0.200000 0.500000
0.518297 -0.282075 -0.034059 0.300000 0.000000 0.600000
0.484694 0.243589 0.055191 0.300000 0.000000 0.600000
0.273826 0.328914 -0.398804 0.600000 0.000000 0.300000
0.220105 0.061369 0.540844 1.000000 0.000000 0.000000
-0.008670 0.639186 -0.309221 1.000000 0.000000 0.000000
0.427691 -0.600759 0.504418 0.300000 0.000000 0.600000
-0.404406 -0.670730 -0.031795 0.000000 0.000000 1.000000
0.064682 0.046678 -0.112591 0.000000 0.500000 0.500000
0.212383 -0.586986 0.482015 0.300000 0.000000 0.600000
-0.215954 0.531868 -0.458887 0.000000 0.500000 0.500000
-0.501014 -0.500308 0.198301 0.800000 0.200000 0.500000
0.518297 0.426358 -0.377929 0.300000 0.000000 0.600000
0.417050 -0.139741 -0.481268 0.800000 0.200000 0.500000
0.281648 0.639186 0.135853 1.000000 0.000000 0.000000
0.104591 0.498255 0.210856 0.300000 0.600000 0.000000
-0.523416 0.395430 0.140909 0.600000 0.000000 0.300000
0.066938 -0.715534 -0.145802 0.000000 0.000000 1.000000
0.347812 -0.052820 0.540844 0.300000 0.000000 0.600000
0.439889 0.306621 0.054075 0.500000 0.000000 0.500000
-0.143123 0.639186 -0.008381 1.000000 0.000000 0.000000
0.518297 -0.258102 0.048426 0.300000 0.000000 0.600000
-0.088742 -0.398677 -0.436485 0.000000 0.000000 1.000000
-0.523416 0.142407 0.387801 0.600000 0.000000 0.300000
0.518297 -0.142294 0.413058 0.300000 0.000000 0.600000
0.463043 -0.715534 0.017908 0.000000 0.000000 1.000000
-0.208813 -0.038169 0.533649 1.000000 0.000000 0.000000
0.423568 0.035477 0.365435 0.000000 0.500000 0.500000
0.211879 0.184023 -0.458887 0.500000 0.000000 0.500000
0.102655 -0.655621 -0.492469 0.000000 1.000000 0.000000
0.010453 0.046678 -0.287130 0.000000 0.500000 0.500000
-0.338950 -0.117678 0.589208 0.600000 0.000000 0.300000
0.405172 -0.670730 -0.282869 0.000000 0.000000 1.000000
-0.478612 0.539311 0.198519 0.500000 0.500000 0.000000
-0.480878 0.639186 -0.141178 1.000000 0.000000 0.000000
0.416742 -0.473535 -0.492469 0.000000 1.000000 0.000000
-0.188314 0.328914 0.083664 0.600000 0.000000 0.300000
-0.523416 0.073068 0.244001 0.600000 0.000000 0.300000
-0.523416 0.057086 0.135597 0.600000 0.000000 0.300000
-0.557020 0.002257 -0.305038 0.600000 0.000000 0.300000
-0.251064 0.539969 0.482015 0.800000 0.200000 0.500000
-0.549572 0.639187 -0.160101 0.600000 0.000000 0.300000
-0.413420 0.328914 -0.314123 0.600000 0.000000 0.300000
0.307858 -0.670730 -0.261996 0.000000 0.000000 1.000000
-0.523416 0.600774 0.068673 1.000000 0.000000 0.000000
-0.339507 -0.670730 0.105902 0.000000 0.000000 1.000000
-0.399508 0.424968 0.507240 0.500000 0.500000 0.000000
0.484694 -0.073688 -0.483948 0.300000 0.000000 0.600000
-0.432676 0.639186 0.264941 1.000000 0.000000 0.000000
-0.269223 -0.715534 0.328212 0.000000 0.000000 1.000000
-0.523416 -0.322056 -0.500706 0.600000 0.000000 0.300000
-0.289507 0.170649 0.482015 1.000000 0.000000 0.000000
0.319197 0.418144 0.540844 0.500000 0.500000 0.000000
-0.502970 0.639186 0.493421 1.000000 0.000000 0.000000
-0.478612 0.171763 0.284513 0.500000 0.500000 0.000000
-0.478612 -0.324057 -0.197087 0.800000 0.200000 0.500000
0.439889 -0.517701 -0.225980 0.600000 0.000000 0.300000
0.160541 0.328914 0.393606 0.600000 0.000000 0.300000
-0.523416 -0.193616 0.283425 0.600000 0.000000 0.300000
-0.181366 -0.402334 0.507240 0.300000 0.000000 0.600000
0.428189 0.035477 0.259352 0.000000 0.500000 0.500000
0.178582 0.206333 0.585403 0.600000 0.000000 0.300000
0.290356 0.306880 0.504418 0.500000 0.500000 0.000000
-0.320208 0.192202 0.540844 1.000000 0.000000 0.000000
-0.296704 -0.715534 -0.134093 0.000000 0.000000 1.000000
0.423256 -0.715534 -0.232160 0.000000 0.000000 1.000000
0.056921 -0.715534 -0.302295 0.000000 0.000000 1.000000
-0.221716 0.594382 0.249992 1.000000 0.000000 0.000000
-0.015871 -0.603910 -0.481268 0.800000 0.200000 0.500000
-0.488227 -0.011105 0.540844 1.000000 0.000000 0.000000
-0.059438 0.372271 -0.481268 0.800000 0.200000 0.500000
0.071846 0.498255 -0.220892 0.300000 0.600000 0.000000
0.392591 0.317712 0.205316 0.600000 0.000000 0.300000
-0.213144 -0.630687 -0.198044 1.000000 0.000000 0.000000
0.250439 0.328914 -0.253335 0.600000 0.000000 0.300000
0.439889 0.176576 0.060214 0.000000 1.000000 0.000000
0.476293 -0.614631 -0.370336 0.300000 0.000000 0.600000
0.194427 0.046678 0.193615 0.000000 0.500000 0.500000
-0.015863 0.497606 -0.492469 0.500000 0.500000 0.000000
-0.478612 -0.258263 0.457329 0.800000 0.200000 0.500000
0.439889 0.148242 -0.395622 0.000000 1.000000 0.000000
-0.380330 -0.715534 0.376373 0.000000 0.000000 1.000000
-0.136007 -0.670730 -0.161791 0.000000 0.000000 1.000000
-0.501014 0.125342 0.269537 0.500000 0.500000 0.000000
0.203358 0.639186 -0.492704 1.000000 0.000000 0.000000
0.340253 -0.715534 0.415381 0.000000 0.000000 1.000000
-0.142706 -0.670730 0.126001 0.000000 0.000000 1.000000
-0.142377 0.433753 -0.481268 0.800000 0.200000 0.500000
0.344850 -0.715534 0.146628 0.000000 0.000000 1.000000
-0.022920 0.380047 0.507240 0.500000 0.500000 0.000000
-0.006311 -0.715534 0.104672 0.000000 0.000000 1.000000
-0.461026 0.046678 0.057139 0.000000 0.500000 0.500000
0.439889 -0.329827 0.150587 0.600000 0.000000 0.300000
-0.117949 -0.670730 -0.343955 0.000000 0.000000 1.000000
0.272740 0.540809 0.540844 0.800000 0.200000 0.500000
0.340343 -0.670730 0.250311 0.000000 0.000000 1.000000
0.518297 -0.328193 0.042820 0.300000 0.000000 0.600000
-0.130913 -0.715534 -0.376297 0.000000 0.000000 1.000000
0.146290 -0.346775 -0.436485 0.000000 0.000000 1.000000
0.247522 0.469855 0.511772 0.800000 0.200000 0.500000
0.033310 0.594382 0.358897 1.000000 0.000000 0.000000
0.134146 0.372102 0.596368 0.000000 1.000000 0.000000
-0.413487 -0.465317 -0.526073 0.000000 1.000000 0.000000
-0.035186 0.639186 0.419677 1.000000 0.000000 0.000000
0.408813 0.560384 0.574375 0.600000 0.000000 0.300000
-0.186071 0.594382 -0.523455 1.000000 0.000000 0.000000
0.289656 0.242871 -0.436485 0.500000 0.000000 0.500000
0.518297 0.499216 0.030004 0.300000 0.000000 0.600000
-0.441262 0.596353 0.507240 0.800000 0.200000 0.500000
-0.128046 0.328914 -0.158271 0.600000 0.000000 0.300000
-0.520420 0.334798 -0.492469 0.800000 0.200000 0.500000
0.372953 0.498255 -0.333386 0.300000 0.600000 0.000000
0.462291 0.104792 -0.008783 0.000000 1.000000 0.000000
-0.094617 0.058127 0.540844 1.000000 0.000000 0.000000
0.063868 -0.393853 -0.436485 0.000000 0.000000 1.000000
-0.501014 0.193916 0.369077 0.500000 0.500000 0.000000
0.220221 0.035477 -0.248719 0.000000 0.500000 0.500000
-0.322254 0.594382 0.272522 1.000000 0.000000 0.000000
-0.330298 0.554768 -0.492469 0.800000 0.200000 0.500000
-0.300053 -0.377507 -0.481268 0.800000 0.200000 0.500000
-0.201474 0.046678 0.079493 0.000000 0.500000 0.500000
-0.478612 -0.170746 0.410387 0.800000 0.200000 0.500000
-0.199420 -0.670730 -0.478633 0.000000 0.000000 1.000000
-0.523416 -0.239516 -0.034393 0.600000 0.000000 0.300000
0.484694 -0.217952 0.300431 0.300000 0.000000 0.600000
0.355336 0.083888 -0.458887 0.500000 0.000000 0.500000
0.439889 -0.579351 -0.117417 0.600000 0.000000 0.300000
0.408680 -0.490093 0.504418 0.300000 0.000000 0.600000
-0.131483 -0.166201 0.540844 0.300000 0.000000 0.600000
0.385882 0.487054 -0.176778 0.300000 0.600000 0.000000
0.052073 0.583003 0.482015 0.800000 0.200000 0.500000
-0.518283 -0.449477 -0.526073 0.000000 1.000000 0.000000
-0.449661 -0.329602 0.507240 0.300000 0.000000 0.600000
-0.557020 -0.280834 -0.478385 0.600000 0.000000 0.300000
0.439889 -0.447215 -0.062524 0.600000 0.000000 0.300000
0.474615 0.360606 0.540844 0.500000 0.500000 0.000000
-0.506615 0.503166 -0.395068 0.000000 0.000000 1.000000
-0.501014 -0.451384 0.111776 0.800000 0.200000 0.500000
-0.557020 0.129215 -0.358209 0.600000 0.000000 0.300000
0.257107 0.594382 0.107267 1.000000 0.000000 0.000000
0.484694 0.164470 0.232385 0.300000 0.000000 0.600000
-0.470898 0.199815 -0.436485 0.500000 0.000000 0.500000
-0.063883 -0.670730 0.279754 0.000000 0.000000 1.000000
-0.478612 -0.316082 -0.084603 0.800000 0.200000 0.500000
-0.168213 0.394254 -0.436485 0.300000 0.600000 0.000000
-0.425941 0.594382 0.171495 1.000000 0.000000 0.000000
0.043640 0.328914 0.430438 0.600000 0.000000 0.300000
0.439889 -0.627274 0.267216 0.600000 0.000000 0.300000
-0.557020 -0.138356 0.205363 0.600000 0.000000 0.300000
0.484694 -0.079293 0.292967 0.300000 0.000000 0.600000
-0.523416 0.542219 -0.316712 0.600000 0.000000 0.300000
0.462291 0.507535 0.114861 0.500000 0.000000 0.500000
-0.411172 -0.670730 -0.425268 0.000000 0.000000 1.000000
0.161098 -0.670730 -0.136207 0.000000 0.000000 1.000000
0.248855 -0.490996 -0.526073 0.000000 1.000000 0.000000
0.032833 -0.517508 0.482015 0.300000 0.000000 0.600000
-0.167970 0.328914 0.233514 0.600000 0.000000 0.300000
-0.515015 0.084689 -0.247985 0.000000 0.000000 1.000000
-0.456736 -0.517126 -0.436485 0.000000 0.000000 1.000000
0.026290 -0.670730 -0.204161 0.000000 0.000000 1.000000
-0.229733 0.133009 -0.436485 0.500000 0.000000 0.500000
-0.478612 -0.271122 0.390706 0.800000 0.200000 0.500000
0.473022 0.541690 0.078097 0.800000 0.200000 0.500000
0.326530 -0.715534 0.221845 0.000000 0.000000 1.000000
0.462291 0.407847 0.411220 0.500000 0.000000 0.500000
0.497244 -0.715534 0.242949 0.300000 0.000000 0.600000
0.484694 0.269551 -0.515476 0.300000 0.000000 0.600000
-0.341066 -0.485129 -0.436485 0.000000 0.000000 1.000000
0.003193 -0.591000 -0.526073 0.000000 1.000000 0.000000
-0.523416 -0.034131 -0.395486 0.600000 0.000000 0.300000
-0.247590 0.413845 0.482015 0.500000 0.500000 0.000000
0.375670 0.035477 0.293590 0.000000 0.500000 0.500000
-0.050412 -0.482680 -0.526073 0.000000 1.000000 0.000000
-0.206878 0.483949 -0.526073 0.500000 0.500000 0.000000
-0.210487 0.306511 -0.448045 0.300000 0.600000 0.000000
0.484694 -0.483744 0.433324 0.300000 0.000000 0.600000
-0.384217 0.633725 -0.526073 1.000000 0.000000 0.000000
0.484694 0.242891 0.428206 0.300000 0.000000 0.600000
0.402650 0.639186 0.468650 1.000000 0.000000 0.000000
-0.523416 -0.326595 0.425720 0.600000 0.000000 0.300000
-0.454495 0.498255 -0.327690 0.300000 0.600000 0.000000
-0.557020 0.271541 -0.243897 0.600000 0.000000 0.300000
-0.231426 -0.328271 -0.436485 0.000000 0.000000 1.000000
0.518297 0.028351 -0.293642 0.300000 0.000000 0.600000
0.089142 0.174978 0.507240 1.000000 0.000000 0.000000
0.518297 0.053599 -0.022856 0.300000 0.000000 0.600000
0.166676 0.383628 -0.481268 0.800000 0.200000 0.500000
-0.501014 -0.533152 -0.184848 0.800000 0.200000 0.500000
-0.002484 0.594382 0.190586 1.000000 0.000000 0.000000
-0.253542 0.046678 0.017550 0.000000 0.500000 0.500000
-0.138149 0.593252 0.540844 0.800000 0.200000 0.500000
0.305436 0.487054 -0.417178 0.300000 0.600000 0.000000
0.260347 0.035477 0.306806 0.000000 0.500000 0.500000
-0.204289 -0.715534 0.216603 0.000000 0.000000 1.000000
-0.186195 -0.670730 -0.384335 0.000000 0.000000 1.000000
0.476293 0.514156 0.285244 0.800000 0.200000 0.500000
-0.155696 0.381063 -0.526073 0.500000 0.500000 0.000000
-0.557020 0.396645 0.252318 0.600000 0.000000 0.300000
-0.313472 0.381999 -0.481268 0.800000 0.200000 0.500000
0.415610 0.432328 -0.481268 0.800000 0.200000 0.500000
-0.478612 -0.287441 -0.126521 0.800000 0.200000 0.500000
-0.439209 0.317712 0.274929 0.600000 0.000000 0.300000
-0.205484 0.528787 0.482015 0.800000 0.200000 0.500000
0.071958 -0.653090 -0.457065 0.000000 0.000000 1.000000
0.127643 -0.714423 0.540844 0.300000 0.000000 0.600000
-0.262561 0.204776 -0.492469 0.800000 0.200000 0.500000
-0.493828 -0.670730 -0.177369 0.000000 0.000000 1.000000
0.439889 0.377592 -0.034994 0.500000 0.000000 0.500000
-0.478612 -0.269055 0.051102 0.800000 0.200000 0.500000
-0.557020 0.082134 0.080078 0.600000 0.000000 0.300000
-0.287701 0.487054 0.411493 0.300000 0.600000 0.000000
0.110673 -0.630687 0.182329 1.000000 0.000000 0.000000
0.473805 0.594382 -0.495901 0.500000 0.500000 0.000000
0.484694 -0.519046 0.375319 0.300000 0.000000 0.600000
-0.510794 0.341977 -0.183361 0.600000 0.300000 0.000000
0.333474 -0.006038 -0.492469 0.800000 0.200000 0.500000
-0.273308 0.328914 0.137245 0.600000 0.000000 0.300000
0.360690 -0.670730 -0.261399 0.000000 0.000000 1.000000
-0.455796 0.317712 -0.340314 0.600000 0.000000 0.300000
0.333607 -0.715534 -0.352574 0.000000 0.000000 1.000000
0.206918 0.639186 0.013403 1.000000 0.000000 0.000000
0.018536 -0.260100 0.507240 0.300000 0.000000 0.600000
-0.164647 0.046678 -0.131867 0.000000 0.500000 0.500000
0.015930 0.639186 -0.233647 1.000000 0.000000 0.000000
-0.015245 -0.670730 0.089616 0.000000 0.000000 1.000000
-0.321028 0.099306 0.540844 1.000000 0.000000 0.000000
-0.092787 -0.670730 0.123338 0.000000 0.000000 1.000000
-0.557020 0.361728 0.494002 0.600000 0.000000 0.300000
-0.139369 0.112095 0.540844 1.000000 0.000000 0.000000
-0.517138 0.499391 -0.168633 0.000000 0.000000 1.000000
0.406292 0.131931 0.482015 1.000000 0.000000 0.000000
-0.141422 -0.715534 0.501513 0.000000 0.000000 1.000000
0.484694 0.595010 -0.439949 0.300000 0.000000 0.600000
0.226724 0.363938 -0.481268 0.800000 0.200000 0.500000
-0.007374 0.035477 0.385862 0.000000 0.500000 0.500000
-0.308292 -0.630687 -0.406457 1.000000 0.000000 0.000000
-0.557020 -0.537076 -0.382148 0.600000 0.000000 0.300000
-0.182515 -0.670730 -0.093024 0.000000 0.000000 1.000000
-0.039669 0.263029 0.540844 1.000000 0.000000 0.000000
-0.138098 0.037390 0.504418 1.000000 0.000000 0.000000
-0.145837 0.328914 0.389762 0.600000 0.000000 0.300000
-0.310482 -0.555955 0.504418 0.300000 0.000000 0.600000
0.330254 -0.551061 0.507240 0.300000 0.000000 0.600000
0.107231 -0.670730 -0.371080 0.000000 0.000000 1.000000
-0.557020 -0.277729 0.267522 0.600000 0.000000 0.300000
0.360293 0.639186 0.145098 1.000000 0.000000 0.000000
0.106449 -0.381267 0.504418 0.300000 0.000000 0.600000
-0.195096 -0.502500 -0.526073 0.000000 1.000000 0.000000
-0.088078 -0.514564 -0.481268 0.800000 0.200000 0.500000
0.314634 0.146810 -0.481268 0.800000 0.200000 0.500000
0.484694 -0.559378 -0.522126 0.000000 1.000000 0.000000
-0.244985 0.388980 -0.526073 0.500000 0.500000 0.000000
0.476293 -0.604405 0.217878 0.300000 0.000000 0.600000
-0.129864 0.498255 -0.164814 0.300000 0.600000 0.000000
-0.206353 0.282073 -0.492469 0.800000 0.200000 0.500000
0.210901 0.368070 0.504418 0.500000 0.500000 0.000000
-0.207226 0.300514 0.533188 0.500000 0.500000 0.000000
0.298555 0.639186 -0.036386 1.000000 0.000000 0.000000
-0.017956 0.035477 0.005418 0.000000 0.500000 0.500000
-0.501014 -0.406599 -0.220305 0.800000 0.200000 0.500000
0.375001 -0.626669 0.507240 0.300000 0.000000 0.600000
0.518297 0.297308 -0.347228 0.300000 0.000000 0.600000
0.439284 0.348816 -0.481268 0.800000 0.200000 0.500000
0.518297 -0.161793 -0.470862 0.300000 0.000000 0.600000
0.518297 0.288564 -0.185066 0.300000 0.000000 0.600000
0.484694 0.476835 -0.400175 0.300000 0.000000 0.600000
0.196112 0.639186 0.305286 1.000000 0.000000 0.000000
0.175196 0.498255 -0.236794 0.300000 0.600000 0.000000
0.121700 -0.281524 -0.481268 0.800000 0.200000 0.500000
0.484694 -0.194342 -0.393773 0.300000 0.000000 0.600000
-0.285050 -0.670730 -0.263619 0.000000 0.000000 1.000000
-0.557020 -0.475488 0.233430 0.600000 0.000000 0.300000
-0.473607 0.594382 0.079154 1.000000 0.000000 0.000000
0.484694 -0.318912 0.267133 0.300000 0.000000 0.600000
-0.116281 0.639186 -0.287588 1.000000 0.000000 0.000000
0.394217 0.594382 -0.041412 1.000000 0.000000 0.000000
-0.052566 -0.139170 -0.481268 0.800000 0.200000 0.500000
0.484694 -0.429755 -0.454168 0.300000 0.000000 0.600000
-0.269479 0.589953 -0.481268 0.800000 0.200000 0.500000
0.020389 0.085456 0.482015 1.000000 0.000000 0.000000
-0.557020 -0.481636 -0.187807 0.600000 0.000000 0.300000
0.490969 0.639187 -0.011432 0.300000 0.000000 0.600000
-0.099073 0.639186 0.377094 1.000000 0.000000 0.000000
-0.515021 0.330050 0.398227 0.600000 0.300000 0.000000
-0.383899 -0.670730 0.051367 0.000000 0.000000 1.000000
-0.038266 0.639186 -0.136196 1.000000 0.000000 0.000000
-0.478612 0.242134 0.162998 0.500000 0.500000 0.000000
0.090040 -0.546855 -0.526073 0.000000 1.000000 0.000000
0.122410 -0.670730 0.455409 0.000000 0.000000 1.000000
0.439889 0.170445 0.280479 0.000000 1.000000 0.000000
0.439889 0.090435 0.078602 0.000000 1.000000 0.000000
0.255968 -0.354382 -0.481268 0.800000 0.200000 0.500000
0.484694 -0.370244 -0.320270 0.300000 0.000000 0.600000
-0.349983 0.054491 -0.436485 0.500000 0.000000 0.500000
-0.453079 0.328914 0.464080 0.600000 0.000000 0.300000
0.392892 -0.715534 0.418057 0.000000 0.000000 1.000000
0.484694 -0.610012 0.328161 0.300000 0.000000 0.600000
0.453795 0.248300 -0.079719 0.000000 1.000000 0.000000
-0.409295 -0.657337 -0.492469 0.000000 1.000000 0.000000
0.518297 0.232157 0.199650 0.300000 0.000000 0.600000
0.467892 -0.686195 0.504440 0.000000 0.000000 1.000000
-0.458834 -0.091019 0.540844 0.300000 0.000000 0.600000
-0.317297 0.035477 0.025576 0.000000 0.500000 0.500000
-0.229164 -0.715534 0.122471 0.000000 0.000000 1.000000
-0.325244 -0.670730 -0.145716 0.000000 0.000000 1.000000
0.518297 -0.713749 -0.479976 0.300000 0.000000 0.600000
0.439889 -0.295567 0.068501 0.600000 0.000000 0.300000
0.044994 -0.715534 -0.388023 0.000000 0.000000 1.000000
-0.518032 0.292855 0.540844 1.000000 0.000000 0.000000
-0.043193 -0.670730 -0.279084 0.000000 0.000000 1.000000
0.011917 -0.432167 0.504418 0.300000 0.000000 0.600000
0.518297 -0.493571 0.019501 0.300000 0.000000 0.600000
0.285493 -0.630687 -0.284047 1.000000 0.000000 0.000000
0.057083 -0.530181 -0.436485 0.000000 0.000000 1.000000
0.518297 -0.147719 0.273367 0.300000 0.000000 0.600000
-0.129433 0.206351 -0.481268 0.800000 0.200000 0.500000
-0.292491 0.594382 0.401815 1.000000 0.000000 0.000000
-0.365582 -0.653090 -0.448855 0.000000 0.000000 1.000000
-0.411120 0.594382 0.390468 1.000000 0.000000 0.000000
-0.478612 0.526949 0.440135 0.500000 0.500000 0.000000
-0.235603 -0.533898 -0.526073 0.000000 1.000000 0.000000
-0.478612 0.381401 -0.155878 0.000000 0.500000 0.500000
-0.478612 0.368750 0.266009 0.000000 0.500000 0.500000
-0.176185 0.035477 0.394639 0.000000 0.500000 0.500000
-0.263564 0.237816 -0.458887 0.500000 0.000000 0.500000
0.245692 0.380842 0.604131 0.000000 1.000000 0.000000
-0.557020 0.183137 -0.486516 0.600000 0.000000 0.300000
-0.369986 -0.498656 -0.481268 0.800000 0.200000 0.500000
-0.510474 -0.670730 0.262825 0.000000 0.000000 1.000000
-0.501014 0.115465 -0.400239 0.500000 0.500000 0.000000
0.028577 -0.641889 0.213070 1.000000 0.000000 0.000000
-0.207871 -0.278296 -0.436485 0.000000 0.000000 1.000000
0.372043 0.233038 0.504418 1.000000 0.000000 0.000000
0.462291 0.310188 -0.112438 0.500000 0.000000 0.500000
-0.478612 -0.423037 -0.081600 0.800000 0.200000 0.500000
-0.486175 0.248300 -0.311892 0.500000 0.500000 0.000000
-0.557020 0.192245 -0.333372 0.600000 0.000000 0.300000
-0.501014 0.145073 -0.073945 0.500000 0.500000 0.000000
0.387922 0.639186 0.002093 1.000000 0.000000 0.000000
-0.388895 0.317712 0.039648 0.600000 0.000000 0.300000
-0.557020 -0.517817 0.074158 0.600000 0.000000 0.300000
0.476293 -0.594968 -0.072506 0.300000 0.000000 0.600000
0.484694 -0.357615 -0.442750 0.300000 0.000000 0.600000
0.163282 -0.163940 0.504418 0.300000 0.000000 0.600000
-0.501841 -0.629551 -0.245337 0.600000 0.300000 0.000000
-0.557020 -0.432436 0.193777 0.600000 0.000000 0.300000
-0.030650 0.639186 -0.471681 1.000000 0.000000 0.000000
0.415924 0.180009 0.482015 1.000000 0.000000 0.000000
0.324108 0.639186 0.069235 1.000000 0.000000 0.000000
-0.523416 -0.471978 0.156951 0.600000 0.000000 0.300000
0.420530 0.024276 0.488072 1.000000 0.000000 0.000000
0.416577 -0.715534 -0.440973 0.000000 0.000000 1.000000
0.518297 0.434573 -0.483064 0.300000 0.000000 0.600000
-0.205534 0.639186 -0.148948 1.000000 0.000000 0.000000
0.484694 0.404383 0.060673 0.300000 0.000000 0.600000
-0.523416 0.064951 0.297002 0.600000 0.000000 0.300000
0.187666 0.639186 0.363718 1.000000 0.000000 0.000000
0.100287 -0.469434 -0.458887 0.000000 0.000000 1.000000
-0.179961 0.594382 0.439231 1.000000 0.000000 0.000000
-0.328022 0.366218 0.482015 0.500000 0.500000 0.000000
0.265052 -0.409133 -0.436485 0.000000 0.000000 1.000000
0.518297 -0.373411 -0.523196 0.300000 0.000000 0.600000
0.484694 -0.436052 0.457232 0.300000 0.000000 0.600000
-0.069749 0.035477 0.431095 0.000000 0.500000 0.500000
0.138679 0.328914 0.090157 0.600000 0.000000 0.300000
0.014812 0.594382 -0.392948 1.000000 0.000000 0.000000
-0.448686 -0.670730 0.408399 0.000000 0.000000 1.000000
0.434673 0.353063 0.482015 0.500000 0.500000 0.000000
-0.204273 0.445313 -0.481268 0.800000 0.200000 0.500000
-0.001897 0.404225 -0.481268 0.800000 0.200000 0.500000
-0.408348 -0.038169 0.526570 1.000000 0.000000 0.000000
0.281774 -0.670730 0.435565 0.000000 0.000000 1.000000
-0.349212 0.498255 -0.027490 0.300000 0.600000 0.000000
0.484694 -0.169169 -0.272560 0.300000 0.000000 0.600000
-0.146563 -0.230188 -0.458887 0.000000 0.000000 1.000000
0.382889 -0.630687 -0.134951 1.000000 0.000000 0.000000
-0.013804 -0.010435 0.507240 1.000000 0.000000 0.000000
-0.055847 -0.469089 -0.436485 0.000000 0.000000 1.000000
0.319172 -0.622788 -0.458887 0.000000 0.000000 1.000000
0.164406 0.639186 -0.333155 1.000000 0.000000 0.000000
0.484694 -0.183449 0.350098 0.300000 0.000000 0.600000
0.305848 0.498255 0.110998 0.300000 0.600000 0.000000
-0.405883 -0.630687 -0.183991 1.000000 0.000000 0.000000
0.180870 0.374941 0.540844 0.500000 0.500000 0.000000
0.047794 0.639186 0.088889 1.000000 0.000000 0.000000
0.245418 -0.670730 -0.179518 0.000000 0.000000 1.000000
-0.385778 0.487054 -0.339497 0.300000 0.600000 0.000000
-0.192082 0.035477 -0.263003 0.000000 0.500000 0.500000
-0.092217 -0.203530 0.540844 0.300000 0.000000 0.600000
0.412189 0.408980 0.504418 0.500000 0.500000 0.000000
-0.050919 0.096369 -0.458887 0.500000 0.000000 0.500000
0.484694 0.274295 0.261516 0.300000 0.000000 0.600000
0.462291 -0.278892 -0.350910 0.600000 0.000000 0.300000
0.257789 -0.553216 -0.481268 0.800000 0.200000 0.500000
0.484694 0.032343 -0.045720 0.300000 0.000000 0.600000
0.213592 -0.641889 -0.341043 1.000000 0.000000 0.000000
0.414590 -0.670730 -0.390940 0.000000 0.000000 1.000000
0.042829 0.035477 -0.151323 0.000000 0.500000 0.500000
-0.311563 -0.715534 -0.277811 0.000000 0.000000 1.000000
0.099685 -0.109295 -0.492469 0.800000 0.200000 0.500000
0.484694 -0.532841 -0.005790 0.300000 0.000000 0.600000
0.233002 0.564662 0.540844 0.800000 0.200000 0.500000
-0.377374 0.594382 -0.117790 1.000000 0.000000 0.000000
0.161706 0.498255 0.451854 0.300000 0.600000 0.000000
0.376538 0.487054 0.185199 0.300000 0.600000 0.000000
0.518297 -0.104870 0.444177 0.300000 0.000000 0.600000
-0.098715 0.594382 -0.110259 1.000000 0.000000 0.000000
0.441818 0.594382 0.227965 1.000000 0.000000 0.000000
0.518297 0.230368 0.129679 0.300000 0.000000 0.600000
-0.033877 0.046678 -0.087073 0.000000 0.500000 0.500000
0.439889 -0.393713 0.273180 0.600000 0.000000 0.300000
0.191111 -0.670730 0.030693 0.000000 0.000000 1.000000
0.195530 0.035477 0.409474 0.000000 0.500000 0.500000
0.462291 -0.191915 0.223627 0.600000 0.000000 0.300000
-0.523416 -0.121789 0.465338 0.600000 0.000000 0.300000
0.013953 0.289176 0.507240 1.000000 0.000000 0.000000
0.518297 -0.261619 -0.195777 0.300000 0.000000 0.600000
-0.196563 -0.630687 -0.304771 1.000000 0.000000 0.000000
-0.557020 -0.631571 0.306377 0.600000 0.000000 0.300000
0.229732 -0.715534 0.191601 0.000000 0.000000 1.000000
-0.481048 -0.715534 0.094921 0.000000 0.000000 1.000000
0.508991 -0.715534 -0.026784 0.300000 0.000000 0.600000
-0.487696 0.418523 0.184793 0.000000 0.500000 0.500000
0.059436 -0.630687 -0.410610 1.000000 0.000000 0.000000
0.439889 -0.620171 0.141262 0.600000 0.000000 0.300000
-0.554349 0.579957 -0.526073 0.600000 0.000000 0.300000
-0.278634 0.219939 0.540844 1.000000 0.000000 0.000000
-0.379523 0.161185 0.540844 1.000000 0.000000 0.000000
0.484694 -0.122486 0.388199 0.300000 0.000000 0.600000
0.484694 0.035147 0.342691 0.300000 0.000000 0.600000
0.346923 -0.295901 0.507240 0.300000 0.000000 0.600000
0.247536 -0.715534 0.281757 0.000000 0.000000 1.000000
0.439889 0.196302 -0.408448 0.000000 1.000000 0.000000
-0.335838 -0.670730 -0.028635 0.000000 0.000000 1.000000
-0.358543 0.498255 0.033612 0.300000 0.600000 0.000000
-0.335676 0.046678 -0.354975 0.000000 0.500000 0.500000
-0.464875 0.639186 0.109542 1.000000 0.000000 0.000000
-0.262541 0.639186 -0.003709 1.000000 0.000000 0.000000
-0.523416 -0.374155 0.338116 0.600000 0.000000 0.300000
-0.557020 -0.199501 0.441626 0.600000 0.000000 0.300000
0.518297 -0.107671 0.138445 0.300000 0.000000 0.600000
-0.448278 0.545893 0.549565 0.600000 0.000000 0.300000
0.201044 -0.670730 -0.160417 0.000000 0.000000 1.000000
-0.297423 -0.715534 0.198043 0.000000 0.000000 1.000000
-0.557020 -0.083283 0.171669 0.600000 0.000000 0.300000
0.421010 0.328914 0.291227 0.600000 0.000000 0.300000
0.484694 0.365100 -0.409710 0.300000 0.000000 0.600000
-0.323136 0.639186 0.351614 1.000000 0.000000 0.000000
0.484694 -0.079789 -0.396567 0.300000 0.000000 0.600000
-0.143564 0.046678 0.277261 0.000000 0.500000 0.500000
-0.107341 -0.715534 -0.010327 0.000000 0.000000 1.000000
0.275005 -0.715534 -0.184689 0.000000 0.000000 1.000000
-0.557020 0.374088 0.205173 0.600000 0.000000 0.300000
0.518297 0.103442 -0.043442 0.300000 0.000000 0.600000
-0.217487 -0.160236 0.498614 0.300000 0.000000 0.600000
-0.478612 0.177831 -0.302189 0.500000 0.500000 0.000000
0.484694 0.572998 -0.218623 0.300000 0.000000 0.600000
0.216594 -0.670730 -0.258604 0.000000 0.000000 1.000000
0.300726 -0.630687 -0.371810 1.000000 0.000000 0.000000
-0.393179 0.498255 0.279004 0.300000 0.600000 0.000000
-0.154165 -0.286210 -0.436485 0.000000 0.000000 1.000000
0.009363 0.639186 0.303931 1.000000 0.000000 0.000000
-0.002339 -0.715534 -0.110188 0.000000 0.000000 1.000000
-0.523416 0.050254 -0.008826 0.600000 0.000000 0.300000
-0.245050 -0.670730 -0.365647 0.000000 0.000000 1.000000
-0.473340 -0.715534 -0.124997 0.000000 0.000000 1.000000
0.465165 0.434139 0.507240 0.500000 0.500000 0.000000
0.378776 0.313049 0.507240 0.500000 0.500000 0.000000
0.038682 -0.126932 0.540844 0.300000 0.000000 0.600000
0.260297 -0.670730 -0.271382 0.000000 0.000000 1.000000
-0.557020 -0.201770 -0.230525 0.600000 0.000000 0.300000
-0.359293 0.450721 0.540844 0.500000 0.500000 0.000000
-0.106553 0.459468 -0.492469 0.800000 0.200000 0.500000
-0.403639 -0.715534 0.463469 0.000000 0.000000 1.000000
-0.478612 -0.385425 0.031061 0.800000 0.200000 0.500000
-0.127998 -0.257824 0.540844 0.300000 0.000000 0.600000
0.022079 0.498255 -0.067381 0.300000 0.600000 0.000000
-0.452769 0.148535 -0.458887 0.500000 0.000000 0.500000
-0.099000 -0.154223 -0.492469 0.800000 0.200000 0.500000
0.439889 0.212814 0.246514 0.000000 1.000000 0.000000
0.024308 0.149243 0.540844 1.000000 0.000000 0.000000
0.518297 0.439992 0.041989 0.300000 0.000000 0.600000
0.484694 0.551578 -0.040897 0.300000 0.000000 0.600000
-0.009594 0.594382 -0.053976 1.000000 0.000000 0.000000
0.402159 -0.630687 -0.318053 1.000000 0.000000 0.000000
0.199193 0.204910 0.540844 1.000000 0.000000 0.000000
0.484694 -0.044461 -0.519727 0.300000 0.000000 0.600000
-0.523416 0.216275 0.274339 0.600000 0.000000 0.300000
0.400664 0.544278 -0.526073 0.500000 0.500000 0.000000
0.518297 0.445849 -0.234906 0.300000 0.000000 0.600000
-0.058313 -0.400716 0.507240 0.300000 0.000000 0.600000
-0.523416 0.543943 0.192732 0.600000 0.000000 0.300000
-0.395277 0.005449 0.540844 1.000000 0.000000 0.000000
0.397075 0.498255 -0.126759 0.300000 0.600000 0.000000
-0.523416 0.277354 0.422001 0.600000 0.000000 0.300000
-0.225056 0.328914 -0.391687 0.600000 0.000000 0.300000
0.126509 0.498255 0.295694 0.300000 0.600000 0.000000
0.346330 0.639186 0.395139 1.000000 0.000000 0.000000
0.180844 0.422250 -0.526073 0.500000 0.500000 0.000000
0.174519 -0.630687 -0.300978 1.000000 0.000000 0.000000
0.518297 -0.367808 -0.042503 0.300000 0.000000 0.600000
0.147859 0.639186 -0.268713 1.000000 0.000000 0.000000
0.518297 -0.285482 -0.153646 0.300000 0.000000 0.600000
0.439889 0.357591 0.214800 0.500000 0.000000 0.500000
-0.501014 -0.259745 -0.330140 0.800000 0.200000 0.500000
-0.057986 -0.715534 0.089663 0.000000 0.000000 1.000000
-0.121265 -0.518236 0.482015 0.300000 0.000000 0.600000
0.517765 -0.715534 -0.289862 0.300000 0.000000 0.600000
-0.146504 0.193624 0.540844 1.000000 0.000000 0.000000
-0.152056 -0.630687 -0.379809 1.000000 0.000000 0.000000
0.078115 -0.059593 0.540844 0.300000 0.000000 0.600000
-0.523416 -0.165770 0.371006 0.600000 0.000000 0.300000
0.243579 0.594382 0.193921 1.000000 0.000000 0.000000
0.484694 -0.364714 0.185807 0.300000 0.000000 0.600000
-0.523416 0.258640 -0.095160 0.600000 0.000000 0.300000
0.439889 -0.403320 -0.338345 0.600000 0.000000 0.300000
-0.252790 0.498255 0.128175 0.300000 0.600000 0.000000
0.284401 0.046678 0.409836 0.000000 0.500000 0.500000
-0.032296 0.198636 -0.436485 0.500000 0.000000 0.500000
-0.017347 0.594382 0.430893 1.000000 0.000000 0.000000
-0.141630 -0.670730 0.221717 0.000000 0.000000 1.000000
0.360210 -0.670730 -0.311313 0.000000 0.000000 1.000000
-0.523416 -0.003052 0.136928 0.600000 0.000000 0.300000
0.439889 -0.407145 0.222506 0.600000 0.000000 0.300000
-0.557020 0.325088 0.375728 0.600000 0.000000 0.300000
0.292903 0.306511 -0.442900 0.300000 0.600000 0.000000
-0.293898 -0.670730 -0.489460 0.800000 0.200000 0.500000
-0.231459 -0.670730 -0.138815 0.000000 0.000000 1.000000
0.319999 -0.630687 -0.198452 1.000000 0.000000 0.000000
-0.198748 -0.670730 0.249971 0.000000 0.000000 1.000000
-0.479561 0.475853 0.156575 0.500000 0.500000 0.000000
-0.515127 0.332517 0.043256 0.600000 0.300000 0.000000
0.035703 -0.551075 -0.492469 0.000000 1.000000 0.000000
-0.140103 0.159044 -0.436485 0.500000 0.000000 0.500000
-0.053402 -0.118084 0.587958 0.600000 0.000000 0.300000
0.042755 -0.630687 -0.086920 1.000000 0.000000 0.000000
-0.523416 -0.497976 -0.214961 0.600000 0.000000 0.300000
-0.486034 0.137940 0.540844 1.000000 0.000000 0.000000
0.363752 0.639186 0.299357 1.000000 0.000000 0.000000
0.020395 0.487054 -0.144661 0.300000 0.600000 0.000000
0.075919 -0.216119 -0.458887 0.000000 0.000000 1.000000
0.285692 -0.551791 -0.436485 0.000000 0.000000 1.000000
0.198306 0.639186 -0.092448 1.000000 0.000000 0.000000
-0.431956 -0.353776 -0.436485 0.000000 0.000000 1.000000
0.462291 -0.551258 0.442908 0.600000 0.000000 0.300000
-0.557020 -0.447126 -0.454185 0.600000 0.000000 0.300000
0.476293 -0.609546 0.023067 0.300000 0.000000 0.600000
-0.123332 0.487054 -0.047444 0.300000 0.600000 0.000000
0.484694 -0.340364 0.085355 0.300000 0.000000 0.600000
-0.478612 -0.460500 -0.382061 0.800000 0.200000 0.500000
-0.016156 -0.509192 -0.458887 0.000000 0.000000 1.000000
-0.091455 -0.641889 -0.122103 1.000000 0.000000 0.000000
-0.501014 -0.512550 0.375167 0.800000 0.200000 0.500000
0.432440 0.639186 -0.136343 1.000000 0.000000 0.000000
-0.162829 0.594382 0.186982 1.000000 0.000000 0.000000
0.484694 0.330343 -0.495484 0.300000 0.000000 0.600000
-0.101470 0.594382 0.019793 1.000000 0.000000 0.000000
-0.432747 0.639186 0.335968 1.000000 0.000000 0.000000
-0.376179 -0.312886 0.504418 0.300000 0.000000 0.600000
-0.007252 0.594382 -0.351959 1.000000 0.000000 0.000000
0.484694 -0.327615 0.315742 0.300000 0.000000 0.600000
-0.033221 0.204382 0.504418 1.000000 0.000000 0.000000
0.462291 -0.174416 0.456179 0.600000 0.000000 0.300000
-0.237011 0.046678 -0.255305 0.000000 0.500000 0.500000
0.448251 0.587865 0.145822 0.500000 0.000000 0.500000
0.345885 0.384112 -0.492469 0.500000 0.500000 0.000000
-0.557020 -0.320007 -0.120505 0.600000 0.000000 0.300000
-0.086236 0.594382 0.314289 1.000000 0.000000 0.000000
-0.501014 -0.427856 0.201617 0.800000 0.200000 0.500000
-0.523416 0.371006 -0.072063 0.600000 0.000000 0.300000
-0.200161 0.317712 0.464732 0.600000 0.000000 0.300000
-0.416898 -0.641889 0.000501 1.000000 0.000000 0.000000
0.261223 0.487054 -0.136207 0.300000 0.600000 0.000000
-0.015760 -0.524781 0.504418 0.300000 0.000000 0.600000
0.439889 0.376706 -0.348505 0.500000 0.000000 0.500000
-0.478612 0.351974 0.207479 0.000000 0.500000 0.500000
-0.147740 0.035477 -0.253101 0.000000 0.500000 0.500000
0.235643 0.566320 -0.436485 0.000000 0.500000 0.500000
-0.072609 0.594382 -0.327277 1.000000 0.000000 0.000000
0.515497 0.479903 0.539084 0.800000 0.200000 0.500000
0.045437 -0.715534 -0.500669 0.000000 0.000000 1.000000
-0.365219 -0.630687 0.031822 1.000000 0.000000 0.000000
-0.387135 -0.670730 0.154220 0.000000 0.000000 1.000000
-0.523416 -0.292202 -0.038473 0.600000 0.000000 0.300000
-0.557020 -0.689755 0.452274 0.600000 0.000000 0.300000
0.484694 0.061661 -0.360530 0.300000 0.000000 0.600000
0.484694 -0.111610 -0.112732 0.300000 0.000000 0.600000
-0.037232 0.639186 0.234674 1.000000 0.000000 0.000000
0.195295 -0.670730 0.322175 0.000000 0.000000 1.000000
-0.523416 -0.502460 0.423913 0.600000 0.000000 0.300000
0.301535 0.235959 0.540844 1.000000 0.000000 0.000000
0.141090 0.498255 -0.402078 0.300000 0.600000 0.000000
-0.523416 0.281321 -0.391607 0.600000 0.000000 0.300000
-0.523416 -0.258195 0.347427 0.600000 0.000000 0.300000
-0.016075 0.623265 -0.526073 1.000000 0.000000 0.000000
0.448848 0.126470 -0.492469 0.800000 0.200000 0.500000
0.419543 -0.715534 0.293385 0.000000 0.000000 1.000000
0.315033 0.046678 0.227462 0.000000 0.500000 0.500000
-0.477973 0.315096 0.540844 0.500000 0.500000 0.000000
-0.242410 -0.630687 -0.094652 1.000000 0.000000 0.000000
-0.363698 0.510004 0.540844 0.800000 0.200000 0.500000
-0.108222 -0.630687 0.380013 1.000000 0.000000 0.000000
-0.400768 0.555114 0.482015 0.800000 0.200000 0.500000
0.484694 -0.639856 0.469649 0.300000 0.000000 0.600000
-0.365108 0.498255 -0.205933 0.300000 0.600000 0.000000
0.094613 -0.715534 0.501226 0.000000 0.000000 1.000000
0.387082 -0.242475 0.540844 0.300000 0.000000 0.600000
-0.086287 -0.653090 0.487743 0.300000 0.000000 0.600000
-0.186571 0.639186 0.289904 1.000000 0.000000 0.000000
-0.557020 -0.669836 -0.125492 0.600000 0.000000 0.300000
0.439889 0.527545 -0.398695 0.500000 0.000000 0.500000
0.290094 -0.478764 -0.458887 0.000000 0.000000 1.000000
0.084288 -0.641889 0.119571 1.000000 0.000000 0.000000
-0.381365 -0.618953 0.507240 0.300000 0.000000 0.600000
-0.557020 -0.061122 0.304881 0.600000 0.000000 0.300000
-0.523416 -0.565069 0.110025 0.600000 0.000000 0.300000
-0.124072 -0.670730 -0.439572 0.000000 0.000000 1.000000
-0.557020 0.587389 0.312225 0.600000 0.000000 0.300000
0.518297 -0.574118 -0.037497 0.300000 0.000000 0.600000
0.433186 -0.573284 -0.492469 0.800000 0.200000 0.500000
-0.540344 0.639187 -0.486623 0.600000 0.000000 0.300000
0.272459 -0.630687 0.237050 1.000000 0.000000 0.000000
0.518297 0.281534 0.017722 0.300000 0.000000 0.600000
0.045895 -0.641889 -0.266606 1.000000 0.000000 0.000000
0.484694 0.011131 0.032303 0.300000 0.000000 0.600000
-0.557020 -0.121825 0.302187 0.600000 0.000000 0.300000
0.439889 -0.314746 0.024675 0.600000 0.000000 0.300000
-0.285739 0.035477 -0.371913 0.000000 0.500000 0.500000
-0.052713 0.328914 -0.094516 0.600000 0.000000 0.300000
0.439889 -0.590500 -0.356787 0.600000 0.000000 0.300000
0.061319 0.317712 -0.313346 0.600000 0.000000 0.300000
0.042617 -0.630687 0.012015 1.000000 0.000000 0.000000
-0.506003 0.583898 0.540844 0.800000 0.200000 0.500000
0.144215 -0.670730 0.377401 0.000000 0.000000 1.000000
0.432446 0.633106 0.504440 1.000000 0.000000 0.000000
-0.557020 -0.683850 -0.314837 0.600000 0.000000 0.300000
-0.413544 0.639186 -0.147026 1.000000 0.000000 0.000000
0.453914 -0.715534 -0.357336 0.000000 0.000000 1.000000
-0.557020 -0.332558 0.366682 0.600000 0.000000 0.300000
0.518297 -0.555211 -0.099316 0.300000 0.000000 0.600000
0.484694 -0.453178 -0.262984 0.300000 0.000000 0.600000
-0.478612 0.526808 0.114378 0.500000 0.500000 0.000000
-0.523416 -0.212876 0.204753 0.600000 0.000000 0.300000
0.518297 -0.269354 0.135361 0.300000 0.000000 0.600000
-0.436438 0.035477 -0.151029 0.000000 0.500000 0.500000
-0.056839 -0.206577 0.482015 0.300000 0.000000 0.600000
0.212759 0.639186 0.146703 1.000000 0.000000 0.000000
-0.150771 0.046678 -0.184947 0.000000 0.500000 0.500000
-0.557020 0.432193 0.143871 0.600000 0.000000 0.300000
-0.333432 0.260612 0.540844 1.000000 0.000000 0.000000
-0.348227 -0.199613 0.504418 0.300000 0.000000 0.600000
-0.557020 0.227639 0.068792 0.600000 0.000000 0.300000
0.518297 -0.093187 0.200391 0.300000 0.000000 0.600000
-0.295725 0.394423 0.540844 0.500000 0.500000 0.000000
-0.330603 -0.352516 -0.458887 0.000000 0.000000 1.000000
0.439889 0.230000 0.162842 0.000000 1.000000 0.000000
-0.488369 0.366777 0.540844 0.500000 0.500000 0.000000
0.518297 -0.067101 -0.221230 0.300000 0.000000 0.600000
0.484694 0.340020 0.233268 0.300000 0.000000 0.600000
0.451892 -0.410903 0.540844 0.300000 0.000000 0.600000
-0.356487 -0.670730 0.223668 0.000000 0.000000 1.000000
-0.099819 0.046678 0.154082 0.000000 0.500000 0.500000
-0.326010 -0.630687 0.422375 1.000000 0.000000 0.000000
-0.125480 -0.715534 0.254963 0.000000 0.000000 1.000000
0.006463 0.318637 -0.492469 0.800000 0.200000 0.500000
0.518297 -0.209931 -0.358313 0.300000 0.000000 0.600000
0.363590 0.639186 -0.056960 1.000000 0.000000 0.000000
-0.220452 -0.665472 0.540844 0.300000 0.000000 0.600000
-0.022545 -0.372231 0.507240 0.300000 0.000000 0.600000
0.100751 0.104391 0.507240 1.000000 0.000000 0.000000
0.458028 0.475853 -0.044773 0.500000 0.000000 0.500000
0.518297 -0.083299 -0.132025 0.300000 0.000000 0.600000
0.462291 0.139390 -0.152050 0.000000 1.000000 0.000000
-0.374864 -0.409789 -0.492469 0.800000 0.200000 0.500000
-0.333516 -0.715534 0.132641 0.000000 0.000000 1.000000
-0.026240 -0.715534 -0.204325 0.000000 0.000000 1.000000
-0.523416 -0.485507 -0.492813 0.000000 1.000000 0.000000
-0.501014 -0.470655 0.472293 0.800000 0.200000 0.500000
0.321694 -0.251711 -0.436485 0.000000 0.000000 1.000000
0.474099 0.594382 -0.359379 1.000000 0.000000 0.000000
-0.357129 -0.490465 0.482015 0.300000 0.000000 0.600000
0.439889 0.065054 -0.339068 0.000000 1.000000 0.000000
-0.135121 0.035477 0.009129 0.000000 0.500000 0.500000
-0.239844 0.243063 0.507240 1.000000 0.000000 0.000000
0.414091 0.035477 -0.248236 0.000000 0.500000 0.500000
0.341479 -0.715534 0.030882 0.000000 0.000000 1.000000
0.046218 -0.670730 -0.324051 0.000000 0.000000 1.000000
-0.523416 0.050410 0.347498 0.600000 0.000000 0.300000
-0.456477 0.594382 0.411925 1.000000 0.000000 0.000000
0.439889 0.380712 0.010031 0.500000 0.000000 0.500000
0.439889 -0.465484 -0.010614 0.600000 0.000000 0.300000
0.310275 -0.380311 -0.492469 0.800000 0.200000 0.500000
0.115853 -0.169278 -0.492469 0.800000 0.200000 0.500000
-0.069214 0.594382 -0.253633 1.000000 0.000000 0.000000
-0.233665 -0.037929 -0.481268 0.800000 0.200000 0.500000
-0.128812 -0.630687 -0.078219 1.000000 0.000000 0.000000
0.444600 0.639186 -0.325946 1.000000 0.000000 0.000000
0.148272 0.583904 0.507240 0.800000 0.200000 0.500000
0.218868 0.317712 -0.355445 0.600000 0.000000 0.300000
0.002036 0.487054 0.064840 0.300000 0.600000 0.000000
0.346920 0.487054 0.332107 0.300000 0.600000 0.000000
0.484694 -0.253631 -0.078483 0.300000 0.000000 0.600000
-0.523416 -0.571126 0.030371 0.600000 0.000000 0.300000
0.196766 -0.715534 -0.390450 0.000000 0.000000 1.000000
0.302532 0.578953 0.507240 0.800000 0.200000 0.500000
0.518297 -0.195089 0.193104 0.300000 0.000000 0.600000
0.346972 0.639186 -0.164046 1.000000 0.000000 0.000000
-0.295812 -0.087515 0.540844 0.300000 0.000000 0.600000
-0.478612 -0.200752 -0.268395 0.800000 0.200000 0.500000
0.202061 0.082456 -0.458887 0.500000 0.000000 0.500000
0.460497 -0.670730 -0.092570 0.000000 0.000000 1.000000
-0.164209 0.487054 0.371377 0.300000 0.600000 0.000000
0.446233 0.475853 0.259955 0.500000 0.000000 0.500000
0.462291 0.332696 0.002682 0.500000 0.000000 0.500000
-0.132447 -0.518083 0.540844 0.300000 0.000000 0.600000
0.484694 0.604884 -0.064716 1.000000 0.000000 0.000000
0.215270 -0.241068 0.504418 0.300000 0.000000 0.600000
0.513568 0.639187 -0.371677 0.300000 0.000000 0.600000
0.154963 -0.715534 -0.196602 0.000000 0.000000 1.000000
-0.557020 -0.399978 0.499796 0.600000 0.000000 0.300000
-0.054766 -0.343816 -0.492469 0.800000 0.200000 0.500000
0.462291 -0.202907 -0.213178 0.600000 0.000000 0.300000
0.164341 -0.670730 0.431691 0.000000 0.000000 1.000000
-0.375496 0.328914 0.355615 0.600000 0.000000 0.300000
0.484694 -0.401285 0.369033 0.300000 0.000000 0.600000
0.113340 -0.511548 -0.492469 0.000000 1.000000 0.000000
-0.523416 0.599228 -0.385634 1.000000 0.000000 0.000000
0.262660 0.392939 -0.526073 0.500000 0.500000 0.000000
-0.103529 0.317712 0.299283 0.600000 0.000000 0.300000
-0.035416 0.042813 0.504418 1.000000 0.000000 0.000000
0.178955 0.140056 0.482015 1.000000 0.000000 0.000000
-0.362302 0.328914 0.442352 0.600000 0.000000 0.300000
0.018043 0.046678 0.096217 0.000000 0.500000 0.500000
-0.371782 0.639186 -0.267744 1.000000 0.000000 0.000000
-0.050938 0.487054 -0.198988 0.300000 0.600000 0.000000
-0.512622 -0.587837 -0.149748 0.600000 0.300000 0.000000
0.098314 0.639186 -0.126428 1.000000 0.000000 0.000000
-0.557020 -0.618609 0.122722 0.600000 0.000000 0.300000
0.357805 0.487054 0.027590 0.300000 0.600000 0.000000
-0.378861 -0.715534 -0.055971 0.000000 0.000000 1.000000
-0.410314 -0.670730 -0.252088 0.000000 0.000000 1.000000
0.408793 -0.379592 -0.458887 0.000000 0.000000 1.000000
-0.497284 -0.715534 0.528163 0.300000 0.000000 0.600000
-0.372506 0.046678 0.182852 0.000000 0.500000 0.500000
0.443706 -0.160236 -0.450200 0.000000 0.000000 1.000000
0.217341 -0.089230 0.540844 0.300000 0.000000 0.600000
0.030007 0.317712 -0.076691 0.600000 0.000000 0.300000
0.484694 -0.034988 0.237296 0.300000 0.000000 0.600000
0.356324 0.555048 0.540844 0.800000 0.200000 0.500000
0.053843 0.498255 -0.306683 0.300000 0.600000 0.000000
-0.434567 -0.670730 -0.347772 0.000000 0.000000 1.000000
0.076814 -0.512652 0.482015 0.300000 0.000000 0.600000
-0.012559 0.487054 -0.273866 0.300000 0.600000 0.000000
-0.215863 -0.715534 0.322411 0.000000 0.000000 1.000000
-0.182333 0.639186 -0.198441 1.000000 0.000000 0.000000
0.175714 -0.416043 0.482015 0.300000 0.000000 0.600000
0.484694 0.102363 0.355396 0.300000 0.000000 0.600000
0.476562 0.543878 0.540844 0.800000 0.200000 0.500000
0.241158 -0.715534 -0.303572 0.000000 0.000000 1.000000
-0.007170 -0.670730 0.245150 0.000000 0.000000 1.000000
-0.478612 0.417019 -0.256108 0.000000 0.500000 0.500000
0.269973 -0.715534 0.130719 0.000000 0.000000 1.000000
0.484694 -0.634624 0.268883 0.300000 0.000000 0.600000
0.001948 -0.395953 -0.436485 0.000000 0.000000 1.000000
-0.113389 -0.558321 -0.526073 0.000000 1.000000 0.000000
0.244389 0.498255 -0.235453 0.300000 0.600000 0.000000
0.357332 -0.670730 -0.406933 0.000000 0.000000 1.000000
-0.513445 0.639186 -0.358241 1.000000 0.000000 0.000000
0.015439 0.092574 -0.492469 0.800000 0.200000 0.500000
-0.523416 0.281174 0.241735 0.600000 0.000000 0.300000
0.293079 -0.271717 -0.481268 0.800000 0.200000 0.500000
-0.128175 0.639186 0.450910 1.000000 0.000000 0.000000
0.439889 0.121987 0.426560 0.000000 1.000000 0.000000
-0.225190 0.328914 -0.004290 0.600000 0.000000 0.300000
-0.414839 -0.696564 0.504440 0.000000 0.000000 1.000000
-0.523416 -0.504582 0.107141 0.600000 0.000000 0.300000
-0.088485 0.594382 0.127482 1.000000 0.000000 0.000000
-0.001861 0.046678 0.135939 0.000000 0.500000 0.500000
0.333755 0.077445 0.507240 1.000000 0.000000 0.000000
0.455135 -0.653090 0.318956 0.600000 0.000000 0.300000
-0.323383 0.248300 -0.451501 0.500000 0.000000 0.500000
0.248626 -0.169862 0.482015 0.300000 0.000000 0.600000
-0.557020 -0.041807 -0.237710 0.600000 0.000000 0.300000
-0.349833 -0.715534 0.344591 0.000000 0.000000 1.000000
-0.171977 0.594382 -0.347660 1.000000 0.000000 0.000000
0.283506 -0.670730 -0.057177 0.000000 0.000000 1.000000
0.284620 0.035477 -0.149461 0.000000 0.500000 0.500000
-0.478612 -0.412668 0.320442 0.800000 0.200000 0.500000
0.457560 0.213313 -0.458887 0.500000 0.000000 0.500000
0.319008 -0.467394 0.507240 0.300000 0.000000 0.600000
0.328819 -0.630687 0.087364 1.000000 0.000000 0.000000
-0.290184 -0.221428 0.507240 0.300000 0.000000 0.600000
-0.232209 0.046678 0.276523 0.000000 0.500000 0.500000
0.147828 0.594382 -0.360191 1.000000 0.000000 0.000000
-0.348008 0.099906 0.504418 1.000000 0.000000 0.000000
0.284760 0.212941 -0.492469 0.800000 0.200000 0.500000
0.484694 -0.053062 -0.195529 0.300000 0.000000 0.600000
-0.478612 0.409801 -0.395051 0.000000 0.500000 0.500000
-0.557020 -0.236598 0.137418 0.600000 0.000000 0.300000
-0.335976 0.024276 0.493529 1.000000 0.000000 0.000000
0.050721 0.413382 -0.492469 0.800000 0.200000 0.500000
0.381357 0.482180 -0.526073 0.500000 0.500000 0.000000
0.045525 -0.480028 0.540844 0.300000 0.000000 0.600000
0.191850 -0.715534 0.365710 0.000000 0.000000 1.000000
0.355381 -0.630687 0.310312 1.000000 0.000000 0.000000
-0.107986 -0.715534 -0.294236 0.000000 0.000000 1.000000
0.287587 0.359624 0.507240 0.500000 0.500000 0.000000
-0.344740 0.328914 -0.087710 0.600000 0.000000 0.300000
0.346829 0.328914 0.103844 0.600000 0.000000 0.300000
-0.482982 0.116546 -0.492469 0.800000 0.200000 0.500000
-0.557020 0.266885 0.344550 0.600000 0.000000 0.300000
0.439889 0.478190 -0.387371 0.500000 0.000000 0.500000
-0.276584 -0.173934 0.507240 0.300000 0.000000 0.600000
0.202009 -0.715534 0.468296 0.000000 0.000000 1.000000
0.209710 -0.392038 0.504418 0.300000 0.000000 0.600000
0.146582 -0.715534 -0.460954 0.000000 0.000000 1.000000
0.305888 -0.630687 0.382127 1.000000 0.000000 0.000000
-0.523416 -0.035930 0.082334 0.600000 0.000000 0.300000
-0.435821 0.505730 -0.526073 0.500000 0.500000 0.000000
0.123592 -0.221209 0.507240 0.300000 0.000000 0.600000
0.439889 -0.248913 -0.373772 0.600000 0.000000 0.300000
-0.164113 0.498255 0.017543 0.300000 0.600000 0.000000
-0.164448 0.093914 -0.436485 0.500000 0.000000 0.500000
0.462291 0.182455 -0.331234 0.000000 1.000000 0.000000
0.165063 0.328914 0.308877 0.600000 0.000000 0.300000
-0.478612 0.549544 -0.057156 0.500000 0.500000 0.000000
0.437675 -0.630687 -0.166450 1.000000 0.000000 0.000000
0.518297 0.319756 -0.282635 0.300000 0.000000 0.600000
-0.478612 0.142005 -0.185486 0.500000 0.500000 0.000000
-0.069385 0.498255 0.177561 0.300000 0.600000 0.000000
-0.478612 -0.206822 -0.107737 0.800000 0.200000 0.500000
-0.376687 0.350465 -0.458887 0.300000 0.600000 0.000000
-0.478612 -0.225519 -0.218463 0.800000 0.200000 0.500000
0.226028 0.498255 -0.399271 0.300000 0.600000 0.000000
-0.450338 0.498255 0.281407 0.300000 0.600000 0.000000
0.484694 0.217390 0.090295 0.300000 0.000000 0.600000
-0.240209 0.639186 -0.301853 1.000000 0.000000 0.000000
-0.383377 -0.715534 0.048438 0.000000 0.000000 1.000000
-0.167144 -0.715534 0.276275 0.000000 0.000000 1.000000
-0.115471 -0.670730 -0.294539 0.000000 0.000000 1.000000
0.432663 -0.670730 0.223908 0.000000 0.000000 1.000000
-0.523416 0.163384 -0.208038 0.600000 0.000000 0.300000
-0.557020 -0.169820 0.409378 0.600000 0.000000 0.300000
-0.057767 -0.670730 -0.515855 0.000000 1.000000 0.000000
0.518297 -0.141806 -0.266405 0.300000 0.000000 0.600000
0.115138 0.639186 -0.451907 1.000000 0.000000 0.000000
0.152531 0.046678 0.433217 0.000000 0.500000 0.500000
0.484694 -0.435994 -0.059155 0.300000 0.000000 0.600000
