ply
format ascii 1.0
element vertex 1281
property float x
property float y
property float z
property uchar red
property uchar green
property uchar blue
end_header
0.367197 -0.172442 -0.116386 76 153 0
-0.748411 -0.293888 -0.445793 76 153 0
0.378959 -0.201465 0.267985 76 153 0
-0.383181 -0.323936 0.184660 153 76 0
0.539129 -0.088917 0.091871 127 127 0
0.229455 0.183619 0.265684 255 0 0
-0.114959 -0.202447 -0.410509 76 153 0
0.292662 0.209383 -0.286174 127 0 127
0.717137 0.265061 -0.384541 0 255 0
-0.623298 -0.114665 0.463277 0 0 255
-0.635640 0.231457 0.176619 0 255 0
0.378959 -0.223524 0.128734 76 153 0
-0.603777 -0.221286 -0.313057 127 127 0
-0.138361 0.165929 0.475808 0 127 127
-0.069754 0.231457 -0.093876 0 255 0
0.514241 -0.310471 0.412790 255 0 0
-0.378782 0.231457 -0.069606 0 255 0
0.336954 0.028765 0.332971 76 0 153
0.559905 0.051759 0.079781 76 0 153
0.713991 0.029803 0.354060 153 0 76
0.436860 0.071349 -0.410509 76 153 0
0.713991 0.021151 0.142919 153 0 76
-0.410309 0.207117 -0.410509 153 76 0
0.241221 0.231457 0.057475 0 255 0
-0.731600 0.206254 0.251231 0 255 0
-0.137258 0.265061 -0.405072 0 255 0
-0.635416 0.013403 0.471597 153 76 0
-0.371420 0.231261 -0.014822 153 76 0
-0.781018 -0.120210 0.419511 76 0 153
-0.765260 -0.221469 0.321741 0 255 0
0.378959 0.119840 0.017823 153 0 76
0.404493 0.015479 -0.440753 76 153 0
-0.465181 0.206254 0.204701 0 255 0
-0.001307 0.094132 -0.440753 76 153 0
0.418077 -0.270924 -0.103258 153 76 0
0.637435 0.206254 -0.335832 127 127 0
0.552207 0.105858 0.164120 76 153 0
0.268682 0.186092 0.450485 255 0 0
0.448545 -0.086505 0.091871 127 127 0
-0.765260 -0.326223 0.392563 76 0 153
-0.493656 -0.213680 0.162440 76 0 153
0.593793 0.231457 0.274520 0 255 0
-0.432920 -0.311249 0.407464 153 0 76
0.350463 -0.253669 -0.440753 76 153 0
-0.555219 0.231457 0.010962 0 255 0
-0.615458 0.231732 0.434908 0 255 0
0.411302 -0.132206 0.385907 0 0 255
-0.761675 -0.270924 0.331853 127 0 127
-0.579012 -0.114665 -0.246556 0 0 255
-0.765260 -0.105726 0.200531 76 0 153
-0.599568 0.265061 0.065947 0 255 0
0.031431 0.207438 0.498481 255 0 0
-0.457007 0.231457 0.039274 0 255 0
0.591393 -0.226355 -0.267692 76 0 153
0.744235 0.086046 0.268693 153 0 76
0.749275 0.183944 -0.006151 153 0 76
-0.784374 -0.178593 0.372465 76 0 153
-0.395324 -0.015754 -0.410509 153 76 0
0.513357 0.136312 0.133877 0 127 127
-0.765260 -0.318795 0.134475 76 0 153
-0.765260 0.017285 -0.089985 76 0 153
0.083186 -0.256817 -0.440753 76 153 0
0.566493 0.265061 -0.287885 0 255 0
-0.625032 0.231457 0.020334 0 255 0
0.404385 -0.110128 -0.148546 127 127 0
0.749275 -0.277300 0.201386 153 0 76
0.641281 0.063685 -0.350022 153 76 0
0.026496 0.218171 -0.286174 127 0 127
-0.656064 -0.275964 -0.212595 127 0 127
-0.705823 0.055218 0.493440 153 76 0
-0.543742 0.265061 -0.448896 0 255 0
0.367197 -0.255328 -0.108064 76 0 153
-0.765260 -0.220678 0.396917 0 255 0
0.531849 -0.224558 0.219567 0 255 0
-0.765260 0.023177 -0.001106 153 0 76
0.518267 -0.208354 0.243090 204 51 127
-0.795503 -0.128228 -0.376257 76 0 153
-0.426460 -0.282685 0.026000 127 0 127
0.243226 0.231457 0.327609 0 255 0
0.702230 -0.253710 0.208915 153 0 76
0.713991 -0.015076 0.295687 255 0 0
0.466541 0.231457 -0.167066 0 255 0
-0.115206 0.131638 0.352303 76 0 153
0.584583 0.007001 -0.410509 76 153 0
0.551311 -0.282685 0.545974 0 127 127
-0.611754 0.206254 0.344059 0 255 0
0.423576 -0.115169 -0.384904 127 127 0
-0.171073 0.165929 0.367871 0 127 127
0.430189 -0.032255 0.088511 127 127 0
-0.765260 0.010985 -0.422153 153 76 0
0.640294 -0.115169 0.121948 127 127 0
0.512086 0.012653 0.385907 204 51 127
0.367197 0.157148 0.324021 153 0 76
-0.460664 0.206254 0.058304 0 255 0
-0.180893 0.231457 -0.314748 0 255 0
-0.166184 0.231457 0.421247 0 255 0
0.753752 0.231457 -0.216137 0 255 0
0.624790 0.206254 0.124482 127 127 0
-0.812305 0.209042 -0.414131 153 76 0
0.331913 -0.308858 -0.376892 76 0 153
0.037698 0.156575 0.518643 255 0 0
0.171299 -0.299643 -0.445793 76 153 0
-0.123227 0.265061 -0.348619 0 255 0
0.416661 0.231457 0.161960 0 255 0
-0.225430 0.231457 0.154849 0 255 0
0.175270 -0.059529 -0.410509 76 153 0
0.566616 -0.270924 -0.265476 76 0 153
0.331913 0.126327 0.010736 76 0 153
0.644886 0.157397 -0.440753 76 153 0
0.390728 -0.110128 0.362657 127 127 0
0.504215 -0.181297 -0.267692 76 0 153
0.718843 -0.021376 -0.457555 76 0 153
-0.250738 0.165929 0.192314 0 127 127
-0.430227 -0.192024 0.231689 255 0 0
0.288878 0.186092 0.391204 255 0 0
0.629655 0.167257 0.461516 76 153 0
-0.418466 -0.269608 -0.136307 153 76 0
0.649998 0.068971 0.133877 0 127 127
-0.430227 0.156838 -0.310043 76 0 153
-0.435009 0.161177 0.471597 153 76 0
-0.024732 0.228446 -0.445793 76 153 0
0.373448 0.007486 -0.151498 0 0 255
0.378959 -0.249850 -0.197447 76 153 0
-0.800544 -0.289379 0.183689 76 0 153
-0.283745 0.165929 0.191457 0 127 127
0.513359 0.206254 -0.265956 127 127 0
-0.273123 0.231457 -0.316663 0 255 0
-0.570293 -0.067269 -0.410509 76 153 0
0.421002 0.206254 0.348985 127 127 0
0.381283 0.231457 0.228776 127 127 0
-0.367352 0.265061 -0.122734 0 255 0
-0.681812 0.231457 -0.383821 0 255 0
-0.508175 0.265061 0.190154 0 255 0
0.501424 0.046467 0.264217 76 0 153
-0.812305 0.189670 -0.446377 153 76 0
-0.641448 -0.235836 -0.440753 76 153 0
0.502124 0.231457 -0.353107 127 127 0
-0.418466 0.073389 -0.109651 153 76 0
-0.015300 0.265061 -0.303395 0 255 0
-0.765260 -0.108863 -0.273444 153 0 76
-0.753498 0.155139 0.062910 153 0 76
0.536172 0.231457 0.311364 127 127 0
0.104580 0.154168 0.452814 0 127 127
-0.622010 0.265061 -0.402741 0 255 0
-0.606023 -0.275964 0.144630 127 0 127
0.708743 0.258992 0.436313 0 255 0
0.507349 0.051759 0.025314 76 0 153
0.367197 0.137521 -0.368444 76 0 153
-0.063448 0.265061 -0.281137 0 255 0
0.625074 -0.055971 0.411110 204 51 127
-0.593913 -0.275964 0.223199 127 0 127
0.507015 -0.110128 0.214136 127 127 0
0.418308 0.265061 0.375197 0 255 0
0.288089 0.200352 0.498481 255 0 0
-0.480026 -0.068923 0.471597 153 76 0
-0.680495 0.003032 -0.328179 204 51 127
-0.418466 0.150269 -0.382947 153 76 0
-0.652395 0.206254 0.402201 153 76 0
-0.418466 -0.013307 -0.250491 76 0 153
-0.786310 -0.224252 0.419511 76 0 153
-0.521296 -0.248852 0.508562 0 0 255
0.361364 0.175248 -0.410509 76 0 153
0.163690 0.231457 -0.383566 0 255 0
-0.365354 0.265061 -0.021781 0 255 0
-0.487676 0.206254 -0.072888 0 255 0
0.530756 -0.090719 0.389267 204 51 127
0.367197 0.104882 0.400306 153 0 76
-0.731421 -0.270924 0.093253 127 0 127
0.744235 -0.062935 -0.174910 153 0 76
0.163949 0.231457 -0.314796 0 255 0
-0.334765 -0.131538 -0.410509 76 153 0
-0.765260 0.165380 0.308507 76 0 153
0.599817 -0.270924 0.055877 153 76 0
-0.728706 0.231457 -0.064874 0 255 0
-0.359658 0.175459 0.357743 127 127 0
-0.561642 -0.104283 0.471597 153 76 0
0.110164 -0.124499 -0.440753 76 153 0
-0.679875 0.265061 -0.192664 0 255 0
-0.217514 0.224198 0.498481 255 0 0
-0.795503 -0.186779 -0.116757 76 0 153
0.378959 -0.198041 -0.062293 76 153 0
-0.753498 -0.169521 0.029207 0 255 0
0.098849 0.231457 -0.072099 0 255 0
0.529589 0.206254 -0.157947 127 127 0
-0.418466 -0.258530 -0.068988 153 76 0
-0.698447 0.231457 0.370774 0 255 0
-0.309494 0.220097 -0.445793 76 153 0
-0.401295 0.077489 0.372465 153 0 76
-0.388222 -0.123696 -0.315470 153 76 0
0.376745 0.206254 0.401912 153 0 76
-0.765260 0.054709 -0.250562 76 0 153
0.660223 -0.299012 -0.405469 76 153 0
-0.546771 -0.270924 -0.302639 127 0 127
-0.482552 0.088570 -0.339941 204 51 127
-0.421565 0.170004 -0.339941 204 51 127
-0.430227 -0.079958 0.352075 76 0 153
0.565191 0.011350 0.400434 204 51 127
0.623726 -0.270924 0.337542 153 76 0
0.336954 0.093596 -0.325056 76 0 153
-0.579992 -0.184560 0.189323 153 76 0
0.367197 -0.037363 0.209615 76 0 153
0.462014 -0.270924 0.069469 153 76 0
-0.178136 0.265061 -0.362525 0 255 0
-0.006877 -0.136510 -0.440753 76 153 0
0.388012 0.039410 0.467874 76 153 0
0.320152 0.181325 -0.262144 76 0 153
-0.418466 0.115400 0.185375 76 0 153
0.544373 -0.254701 0.243090 204 51 127
0.713991 -0.182463 0.461797 153 0 76
-0.765260 0.055898 0.411947 76 0 153
-0.221184 -0.118672 -0.440753 76 153 0
0.713991 -0.171622 -0.060593 153 0 76
-0.812305 -0.196321 -0.413332 153 76 0
-0.541148 -0.021119 -0.410509 76 153 0
0.320152 0.200205 0.195590 0 255 0
0.009674 -0.060822 -0.410509 76 153 0
0.419676 0.135527 0.160760 76 153 0
0.700313 -0.086206 0.061628 127 0 127
0.706316 -0.190756 -0.267692 76 0 153
0.737005 0.075476 -0.410509 76 0 153
0.367197 0.108279 0.052851 153 0 76
-0.565729 -0.114665 0.136404 0 0 255
-0.418466 0.009776 0.128758 153 76 0
0.682082 -0.022771 -0.410509 0 255 0
-0.557985 0.206254 -0.164689 0 255 0
-0.462665 0.265061 0.326271 0 255 0
0.582342 0.231457 -0.284727 0 255 0
0.336954 -0.217876 -0.284749 76 0 153
0.520893 -0.275964 0.486810 153 76 0
0.744235 0.111161 -0.330074 153 0 76
-0.771703 -0.512794 0.388447 76 0 153
-0.453745 -0.109624 0.017091 0 0 255
-0.765260 0.051373 0.459983 153 0 76
0.532765 0.006081 -0.410509 76 153 0
0.367197 -0.122427 -0.244822 76 0 153
0.713991 -0.304343 -0.027740 153 0 76
-0.296413 0.154168 0.454348 0 127 127
0.706776 0.265061 -0.026082 0 255 0
0.741231 0.098449 -0.457555 76 0 153
-0.767561 0.231457 -0.024059 0 255 0
-0.406273 0.231457 0.230224 153 76 0
0.518481 0.051759 -0.074173 76 0 153
0.749275 -0.310151 -0.294825 153 0 76
0.687792 -0.190845 0.243090 204 51 127
-0.464803 0.265061 0.099036 0 255 0
0.277671 0.265061 0.025328 0 255 0
0.367197 -0.185438 0.403276 76 153 0
-0.765260 0.190247 0.141000 76 0 153
0.378959 -0.158316 0.062260 76 153 0
-0.323511 0.265061 0.211369 0 255 0
0.713991 0.163578 0.193255 153 0 76
0.744235 -0.111214 0.005634 153 0 76
-0.737517 -0.231864 0.486719 0 0 255
-0.469706 0.140412 -0.339941 204 51 127
-0.302186 0.231456 0.239909 0 255 0
0.331913 -0.301854 -0.269290 76 0 153
-0.070098 0.130645 0.352535 76 0 153
0.730632 -0.326370 0.098719 153 0 76
0.404693 0.206254 -0.311430 127 127 0
-0.443005 -0.003480 0.471597 153 76 0
-0.765260 0.170791 -0.085957 153 0 76
-0.368942 0.231457 -0.333386 0 255 0
-0.490926 -0.246996 0.189323 153 76 0
-0.430227 0.164735 -0.196910 76 0 153
-0.811693 0.231457 -0.341963 0 255 0
-0.812062 0.231457 0.229327 0 255 0
0.613302 -0.270924 0.014850 153 76 0
-0.598960 0.265061 -0.377052 0 255 0
-0.227517 0.175401 0.164120 153 0 76
0.702230 0.007433 -0.219209 255 0 0
0.595187 0.231457 -0.121184 0 255 0
0.481753 0.119845 -0.410509 76 153 0
-0.371420 0.208294 -0.192188 127 127 0
0.196420 0.214177 -0.445793 76 153 0
0.500802 0.066923 0.133877 0 127 127
-0.762113 -0.153309 -0.229554 0 255 0
0.611482 -0.218004 0.246450 204 51 127
0.708955 0.206254 -0.172419 127 127 0
-0.765260 0.135054 0.242552 153 0 76
0.713991 -0.004821 -0.120250 255 0 0
0.689844 0.046467 0.243093 76 0 153
-0.430227 -0.098121 0.104329 76 0 153
-0.753498 -0.084867 0.119408 153 0 76
-0.673155 0.265061 -0.165211 0 255 0
0.041345 0.219376 0.164120 153 0 76
-0.548364 -0.079257 0.471597 153 76 0
0.738701 -0.284575 -0.410509 153 0 76
-0.760724 0.206254 -0.319442 0 255 0
0.547786 0.265061 0.312575 0 255 0
0.378959 -0.104779 -0.029019 0 0 255
0.578485 -0.275964 0.306823 153 76 0
-0.653999 -0.114665 0.044354 0 0 255
-0.192409 0.231457 -0.245235 0 255 0
0.744235 -0.072108 0.126111 153 0 76
-0.753498 -0.061513 0.287773 153 0 76
-0.682250 0.265061 0.079813 0 255 0
0.493582 0.231457 0.270045 0 255 0
0.430244 -0.025676 -0.422271 0 255 0
-0.765259 -0.275176 -0.302577 127 0 127
-0.544263 -0.270924 -0.245494 127 0 127
-0.795503 -0.150702 0.135369 76 0 153
-0.765260 -0.290313 0.142581 76 0 153
0.187301 0.165929 -0.101180 0 127 127
0.131122 0.265061 0.251748 0 255 0
0.713991 0.119361 0.162176 153 0 76
0.367197 -0.095745 -0.400126 76 0 153
0.439680 -0.002218 0.411110 204 51 127
0.378959 -0.067822 0.382336 0 0 255
0.325467 0.231457 -0.187067 76 0 153
0.728002 -0.326370 -0.253734 153 0 76
-0.418466 0.040617 -0.218333 76 0 153
0.378959 0.162517 0.031704 153 0 76
0.563144 -0.077831 0.389267 204 51 127
0.655562 0.265061 0.029126 0 255 0
-0.728000 0.206254 -0.169074 0 255 0
-0.464871 0.209736 -0.410509 76 153 0
-0.765260 0.121717 0.209644 153 0 76
-0.765260 -0.010669 -0.121886 76 0 153
-0.590155 -0.114665 -0.055554 0 0 255
-0.699191 0.265061 0.169508 0 255 0
0.151559 0.265061 0.352630 0 255 0
-0.239703 0.265061 0.322546 0 255 0
0.548577 0.231457 -0.407511 127 127 0
-0.308878 0.265061 -0.440536 0 255 0
-0.505977 -0.270924 -0.285812 127 0 127
0.447019 -0.269294 0.246450 204 51 127
-0.418466 0.108083 0.242094 76 0 153
-0.418466 0.041258 0.219155 153 76 0
0.367197 0.210505 0.124832 127 127 0
0.672030 -0.270924 0.084775 153 76 0
0.082368 0.154168 0.489169 0 127 127
0.262083 -0.096842 -0.440753 76 153 0
-0.726466 -0.234406 0.159080 76 0 153
0.061544 0.154075 -0.440753 76 153 0
0.474573 -0.270924 -0.103444 153 76 0
-0.418466 -0.282528 0.069154 153 76 0
-0.765260 -0.138641 0.211396 76 0 153
-0.603804 -0.275964 0.074395 127 0 127
-0.829107 0.240376 0.092012 0 255 0
0.428463 -0.115169 0.094423 127 127 0
0.364563 0.231457 0.368274 76 0 153
-0.380020 -0.300662 0.372465 153 0 76
-0.422462 -0.270924 0.317505 127 0 127
0.367197 0.110563 -0.050274 153 0 76
-0.243620 0.130645 0.371715 76 0 153
0.558919 0.265061 -0.380138 0 255 0
-0.772828 0.231457 -0.256279 76 0 153
0.749275 0.210468 0.177738 153 0 76
0.342831 -0.019120 -0.410509 76 153 0
-0.371420 0.096520 0.412603 153 0 76
-0.441181 -0.017460 -0.410509 76 153 0
0.336954 -0.000449 0.050886 76 0 153
-0.800544 0.205542 0.161029 76 0 153
-0.770377 0.239325 0.436313 0 255 0
0.713991 -0.252318 0.160873 153 0 76
-0.580194 -0.270924 0.132848 127 0 127
-0.452506 0.231457 0.236493 0 255 0
0.409923 -0.115169 -0.241733 127 127 0
0.744235 -0.134043 0.144036 153 0 76
0.336954 -0.015788 -0.079744 76 0 153
0.510625 0.046467 0.059856 76 0 153
-0.115710 0.202906 -0.286174 127 0 127
-0.197734 0.049617 -0.410509 76 153 0
0.724841 -0.326370 -0.387757 153 0 76
-0.809047 -0.391875 -0.457555 153 76 0
0.350892 0.265061 -0.106184 0 255 0
0.336954 0.072538 0.127405 76 0 153
0.722948 0.265061 -0.290712 0 255 0
-0.738810 -0.270924 0.224894 127 0 127
0.320152 0.155394 0.152121 0 255 0
0.600801 0.051759 0.095490 76 0 153
-0.753498 -0.165210 -0.075943 0 255 0
-0.418466 0.208327 -0.185338 0 255 0
0.570315 -0.051397 -0.422271 0 255 0
-0.526651 -0.224740 0.189323 153 76 0
0.437034 0.231457 -0.427739 76 153 0
-0.683415 0.206254 0.333102 0 255 0
-0.765260 0.040064 0.289864 153 0 76
-0.751115 -0.211462 0.189323 153 76 0
-0.388747 0.265061 -0.269463 0 255 0
0.663864 -0.102745 0.389267 204 51 127
0.540730 0.231457 0.234656 0 255 0
0.336954 -0.259812 -0.388326 76 0 153
-0.589915 -0.176304 0.486719 0 0 255
-0.349515 0.265061 0.059616 0 255 0
0.560563 0.051759 -0.255890 76 0 153
-0.418466 0.040066 -0.110895 76 0 153
-0.667025 -0.081816 -0.339941 204 51 127
0.133377 0.154168 0.093478 0 127 127
0.605546 -0.110128 -0.075170 127 127 0
-0.765260 -0.431749 -0.428343 153 76 0
-0.388222 -0.243298 0.045925 153 76 0
0.465773 -0.115169 0.274396 127 127 0
-0.786711 -0.034288 0.419511 76 0 153
-0.388222 -0.029906 -0.196602 153 76 0
0.506966 0.147451 0.483359 76 153 0
-0.718862 0.231457 -0.243020 0 255 0
0.584424 0.046467 0.238900 76 0 153
0.368600 0.085376 -0.440753 76 153 0
0.511192 0.051759 0.158796 76 0 153
-0.430227 -0.010943 -0.111361 76 0 153
-0.192818 0.265061 -0.450639 0 255 0
0.713991 -0.271573 0.232268 153 76 0
-0.457468 0.093393 0.493440 153 76 0
0.480782 -0.110128 -0.240974 127 127 0
-0.795503 -0.175610 0.184836 76 0 153
-0.418466 0.131646 0.362721 153 76 0
-0.670426 -0.091006 0.493440 153 76 0
0.713991 0.055587 -0.223818 153 0 76
-0.321535 0.193018 0.498481 255 0 0
0.699310 -0.262215 0.543846 0 127 127
0.308390 0.215754 0.279315 0 255 0
0.686987 -0.140591 0.412790 0 0 255
0.761037 -0.416234 0.400969 153 0 76
-0.659218 0.206254 0.198897 0 255 0
0.545788 -0.245303 0.543846 0 127 127
-0.418557 -0.136953 0.412790 76 0 153
-0.765260 0.021512 -0.051694 76 0 153
0.492076 -0.180954 -0.410509 76 153 0
-0.649734 0.231457 -0.357548 0 255 0
-0.765260 0.034546 0.051683 76 0 153
0.245000 0.154168 0.051025 0 127 127
-0.795503 -0.261681 -0.202724 76 0 153
-0.259083 0.228465 0.498481 255 0 0
-0.803154 -0.279655 -0.457555 153 76 0
0.607516 0.212300 0.429592 127 127 0
-0.418466 0.104036 -0.275245 153 76 0
-0.794008 0.231457 0.009836 0 255 0
-0.765260 -0.144619 0.339024 76 0 153
0.650174 -0.267042 0.216207 0 255 0
-0.490242 -0.153360 0.486719 0 0 255
0.331913 -0.274930 -0.121409 76 0 153
-0.736432 0.130905 0.493440 153 76 0
-0.388222 -0.002371 -0.151658 153 76 0
-0.357250 0.208211 0.498481 255 0 0
0.205667 -0.326370 -0.435124 76 153 0
0.112678 0.231457 0.069095 0 255 0
-0.593935 0.265061 0.177954 0 255 0
-0.388222 -0.124470 0.230890 153 76 0
-0.621182 -0.079367 -0.410509 76 153 0
-0.733986 0.206254 0.318935 0 255 0
0.035147 0.165929 0.311699 0 127 127
-0.795503 0.069333 0.351273 76 0 153
0.378959 -0.015654 -0.281126 0 0 255
0.378959 -0.082147 0.037039 0 0 255
-0.388222 0.056130 -0.268229 153 76 0
-0.530992 -0.114665 -0.253561 0 0 255
-0.462330 0.265061 0.062459 0 255 0
0.284621 0.165929 -0.216978 0 127 127
0.590391 0.231457 -0.185259 0 255 0
-0.418466 -0.185242 -0.252240 153 76 0
0.320152 0.225760 0.365231 0 255 0
-0.720849 -0.118799 0.471597 153 76 0
-0.418466 -0.248627 0.299781 255 0 0
0.713598 0.051759 0.122636 76 0 153
-0.093723 -0.120125 -0.410509 76 153 0
0.154165 0.265061 -0.215847 0 255 0
0.408359 -0.149689 -0.440753 76 153 0
-0.432500 0.265061 -0.165225 0 255 0
0.320152 0.201783 0.409528 76 153 0
-0.371420 0.150137 0.210579 153 76 0
0.713991 -0.250005 0.521909 153 0 76
0.037253 0.265061 -0.113508 0 255 0
0.085475 0.265061 0.048370 0 255 0
-0.501761 0.231457 -0.156888 0 255 0
-0.037917 0.165929 0.096942 0 127 127
0.632629 -0.115169 0.187303 127 127 0
-0.404188 -0.202273 -0.440753 76 153 0
-0.736757 0.206254 -0.235092 0 255 0
-0.476702 0.018072 -0.410509 76 153 0
-0.364329 0.231456 0.357860 0 255 0
-0.024532 0.165929 0.384883 0 127 127
0.473448 -0.139947 -0.440753 76 153 0
0.367197 -0.140826 -0.069690 76 0 153
-0.765260 0.097230 -0.231248 76 0 153
0.377681 -0.123066 0.402498 0 0 255
0.676373 0.103745 0.160760 76 153 0
-0.294665 0.265061 0.355871 0 255 0
-0.524558 -0.275964 -0.052857 127 0 127
-0.490939 0.096316 0.471597 153 76 0
0.679678 -0.249869 0.246450 204 51 127
0.622842 0.051759 -0.050588 76 0 153
0.104898 -0.198401 -0.410509 76 153 0
0.675060 -0.089916 -0.440753 76 153 0
-0.551484 -0.109624 0.201975 0 0 255
0.618104 0.231457 0.201795 127 127 0
0.367197 -0.129635 -0.352102 76 0 153
0.688488 -0.230116 0.543846 0 127 127
0.702230 -0.044765 -0.297456 255 0 0
-0.345763 0.231457 -0.360422 0 255 0
-0.793707 -0.326370 0.121485 76 0 153
0.666628 -0.110128 0.106480 127 127 0
0.536453 0.231457 -0.327665 0 255 0
-0.745745 -0.109624 -0.087186 0 0 255
0.713991 0.102959 0.232402 76 0 153
0.322743 -0.424312 0.372465 76 153 0
0.666933 0.026198 -0.410509 76 153 0
-0.430227 -0.097121 0.445771 76 0 153
0.242149 -0.153147 -0.440753 76 153 0
-0.425758 0.083229 -0.002220 76 0 153
0.610299 0.150068 0.483359 76 153 0
0.487867 0.044195 -0.350022 76 0 153
-0.430227 0.010245 0.371894 76 0 153
-0.765260 -0.206461 0.032539 76 0 153
0.336954 0.110273 0.171832 76 0 153
0.749275 0.185926 0.232929 153 0 76
0.404487 0.073018 0.137237 0 127 127
0.312659 0.150807 -0.121976 0 255 0
-0.782504 -0.335296 0.372465 76 0 153
0.547699 -0.245057 -0.440753 76 153 0
-0.425906 -0.059443 -0.440753 76 153 0
-0.465155 0.265061 -0.207918 0 255 0
0.460703 0.052010 -0.350022 153 76 0
-0.582907 0.032204 0.471597 153 76 0
-0.777805 0.014255 0.419511 76 0 153
0.702230 -0.072223 -0.029026 255 0 0
0.702230 0.069326 0.435884 76 0 153
-0.752202 0.265061 0.296569 0 255 0
-0.418466 -0.033257 0.088619 153 76 0
0.554963 0.206254 0.155794 127 127 0
0.336954 -0.071979 -0.008990 76 0 153
-0.420978 -0.161522 -0.410509 76 153 0
-0.493497 -0.061778 -0.440753 76 153 0
0.110628 0.175049 -0.297936 127 0 127
0.713991 0.100297 -0.366599 153 0 76
0.410458 0.046467 -0.153019 76 0 153
-0.812305 -0.032146 -0.429253 153 76 0
0.713991 0.178918 -0.249113 153 0 76
-0.825342 0.231457 -0.112848 0 255 0
0.233773 0.154168 0.487611 0 127 127
-0.590585 -0.252885 0.508562 0 0 255
-0.090510 0.165929 0.025834 0 127 127
0.611734 -0.212806 -0.255931 76 0 153
0.378959 -0.188836 -0.244221 76 153 0
0.693425 -0.223762 -0.267692 76 0 153
0.744235 0.064372 0.017690 153 0 76
0.086397 0.165929 0.336154 0 127 127
0.643386 0.231457 -0.093340 0 255 0
-0.154651 0.231457 0.202702 0 255 0
-0.675088 0.201999 0.385907 153 76 0
-0.388222 0.051253 0.347104 153 76 0
-0.736126 -0.035003 -0.410509 76 153 0
-0.615836 0.265061 0.432986 0 255 0
-0.388222 0.011843 -0.061104 153 76 0
0.336954 -0.090753 -0.177326 76 0 153
0.744235 -0.257918 -0.297891 153 0 76
-0.435118 -0.109624 0.371343 0 0 255
-0.199687 0.265061 -0.331700 0 255 0
-0.650535 -0.247689 0.185963 153 76 0
-0.483382 0.265061 0.390156 0 255 0
-0.418466 -0.099111 -0.243524 76 0 153
0.713991 0.170907 -0.177867 76 0 153
-0.418466 -0.257723 -0.212774 153 76 0
0.551977 0.014839 -0.440753 76 153 0
0.744235 -0.002126 0.350750 153 0 76
-0.811821 0.116556 -0.456359 153 76 0
0.744235 0.071108 0.359587 153 0 76
-0.080270 0.265061 0.218993 0 255 0
0.698688 0.231457 -0.372309 127 127 0
0.396744 -0.275964 0.392347 153 76 0
0.459980 0.206254 -0.242319 127 127 0
0.294006 0.186092 0.264219 255 0 0
0.675876 0.206254 -0.046776 127 127 0
0.194001 0.154168 0.066013 0 127 127
-0.418466 -0.258726 -0.337723 153 76 0
-0.366472 0.265061 0.358183 0 255 0
0.395136 -0.270924 -0.161540 153 76 0
0.336468 0.162673 -0.440753 76 153 0
-0.014780 0.154283 0.518643 255 0 0
0.537041 0.152969 0.461516 76 153 0
-0.028027 0.237517 0.386696 0 255 0
0.465853 -0.237081 -0.440753 76 153 0
0.712744 0.051759 -0.039173 76 0 153
0.038861 0.165929 0.152796 0 127 127
-0.003646 0.130645 0.354198 76 0 153
0.445015 0.046467 -0.094027 76 0 153
-0.652016 0.231457 0.120328 0 255 0
-0.418466 -0.229574 0.398611 153 0 76
0.451619 0.231457 0.054947 127 127 0
0.730169 0.172729 0.372465 153 0 76
-0.541534 -0.275964 -0.083606 127 0 127
-0.795503 -0.181239 -0.007476 76 0 153
0.266381 -0.170849 -0.410509 76 153 0
-0.430874 0.206254 -0.291266 0 255 0
-0.418466 -0.075872 0.179514 153 76 0
0.124656 -0.213038 -0.440753 76 153 0
-0.443230 0.087089 -0.440753 76 153 0
0.631140 0.206254 0.067479 127 127 0
0.465844 0.206254 0.212882 127 127 0
-0.262756 0.265061 -0.413378 0 255 0
-0.765260 -0.191826 0.349346 76 0 153
0.280485 0.165929 0.150617 0 127 127
-0.452644 0.206254 0.274378 0 255 0
0.356895 0.231457 0.198719 76 0 153
-0.418466 -0.266342 -0.286810 255 0 0
-0.611190 0.231457 0.140572 0 255 0
-0.183132 0.154168 0.493104 0 127 127
0.713991 0.139923 -0.275383 153 0 76
-0.765260 -0.174351 -0.208761 0 255 0
-0.527895 0.231457 -0.285704 0 255 0
0.710814 0.265061 -0.178426 0 255 0
-0.375050 0.093383 -0.410509 76 153 0
-0.497377 0.206254 -0.004642 0 255 0
-0.765260 -0.203058 -0.315336 76 0 153
-0.505252 0.265061 0.324114 0 255 0
-0.403978 -0.213725 -0.410509 153 76 0
-0.257372 0.231456 0.373601 0 255 0
-0.516851 0.150760 0.493440 153 76 0
-0.422473 0.265061 0.129182 0 255 0
0.316670 -0.326370 -0.421844 76 153 0
0.388283 0.101054 -0.338260 153 76 0
0.345942 0.014157 0.372465 76 153 0
-0.305475 -0.109444 -0.410509 76 153 0
0.367197 0.063438 -0.356475 76 0 153
-0.795503 -0.091023 -0.402624 76 0 153
-0.765260 0.101486 -0.259810 76 0 153
-0.521028 -0.222768 0.486719 0 0 255
0.518475 0.206254 0.282257 127 127 0
0.630134 -0.270924 -0.017069 153 76 0
-0.141487 0.231457 0.033954 0 255 0
-0.371420 -0.069490 0.404343 153 0 76
0.532258 -0.110128 -0.040172 127 127 0
-0.440926 0.231457 0.169175 0 255 0
-0.418466 0.117782 -0.073905 153 76 0
-0.437083 0.231457 -0.179717 0 255 0
-0.465363 -0.270924 -0.201723 127 0 127
0.745768 0.231457 -0.409541 0 255 0
0.450267 0.265061 0.276688 0 255 0
-0.360254 0.150807 -0.166885 127 127 0
-0.003591 0.010597 -0.440753 76 153 0
0.609588 0.046467 0.049768 76 0 153
-0.678920 0.265061 -0.432838 0 255 0
0.209152 0.231457 0.234231 0 255 0
-0.521408 0.155587 -0.440753 76 153 0
-0.786767 -0.115058 -0.410509 76 0 153
0.086656 0.231457 -0.010468 0 255 0
0.654888 -0.115169 -0.290235 127 127 0
0.713991 -0.002496 -0.029229 153 0 76
0.556470 0.231457 -0.067677 0 255 0
-0.240197 0.265061 0.059953 0 255 0
-0.800544 0.177893 -0.392503 76 0 153
-0.765260 0.087806 0.209186 76 0 153
0.635805 -0.204885 0.565689 0 127 127
0.585182 0.231457 0.132986 127 127 0
-0.103561 0.231457 0.171176 0 255 0
-0.670165 -0.273735 -0.324819 127 0 127
0.402357 -0.173704 0.543846 0 127 127
0.377075 0.070315 -0.410509 76 153 0
0.724780 -0.042865 -0.410509 76 0 153
0.702230 0.065111 -0.091549 76 0 153
-0.829107 0.244371 -0.443645 0 255 0
0.378959 0.066849 0.051097 153 0 76
-0.610034 0.206254 0.047916 0 255 0
-0.798964 0.066682 -0.457555 153 76 0
0.367197 -0.055880 0.328470 76 0 153
0.074018 0.120433 -0.410509 76 153 0
-0.418466 -0.304460 -0.342920 153 76 0
0.635090 0.265061 -0.099829 0 255 0
0.556245 -0.011799 -0.440753 76 153 0
-0.737131 0.206254 -0.029293 0 255 0
0.137628 -0.326370 -0.406301 76 153 0
0.744235 -0.243125 -0.136801 153 0 76
-0.430227 0.104092 -0.046492 76 0 153
-0.430227 0.044858 0.381166 76 0 153
-0.753498 -0.261311 0.137282 0 255 0
0.718479 -0.326370 -0.078624 153 0 76
-0.638998 0.231457 -0.283895 0 255 0
0.280648 0.231457 0.196246 0 255 0
-0.267487 0.165929 0.065897 0 127 127
-0.299117 0.165929 0.370328 0 127 127
0.497874 -0.148984 -0.410509 76 153 0
0.394050 0.051759 0.011686 76 0 153
0.233557 0.165929 0.087475 0 127 127
0.007688 0.154168 -0.042830 0 127 127
-0.383181 -0.299180 0.046597 153 76 0
0.400317 0.231457 0.005902 127 127 0
0.583588 0.086463 0.160760 76 153 0
0.370739 0.231457 -0.176931 0 255 0
0.257579 0.150807 -0.292612 127 0 127
0.336954 -0.110776 0.008286 76 0 153
-0.418466 0.185236 0.260647 153 76 0
-0.800544 -0.295741 0.239933 76 0 153
-0.430227 0.168906 -0.048915 76 0 153
0.713991 -0.049201 -0.151339 153 0 76
0.260874 0.231457 -0.055680 0 255 0
0.603503 -0.275964 0.415533 153 76 0
0.641860 0.134071 0.461516 76 153 0
0.301435 0.265061 0.123494 0 255 0
0.522256 0.051759 0.203060 76 0 153
0.761037 0.055569 0.396870 153 0 76
0.367197 0.127628 0.313101 153 0 76
-0.765260 -0.024734 0.197694 153 0 76
0.381617 0.265061 -0.450580 0 255 0
-0.716828 -0.114665 -0.288732 0 0 255
0.749275 -0.293103 0.279600 153 0 76
0.493637 0.231457 -0.307034 127 127 0
0.613917 -0.270924 -0.209398 153 76 0
-0.678660 -0.114665 -0.238153 0 0 255
-0.765260 -0.007897 -0.001223 153 0 76
-0.598853 0.265061 -0.025700 0 255 0
0.531891 -0.270924 0.010329 153 76 0
0.408370 -0.034673 0.064988 127 0 127
0.504554 -0.275964 -0.141074 153 76 0
0.437583 0.231457 -0.249896 0 255 0
0.466517 0.120536 0.137237 0 127 127
0.719114 -0.326370 0.177690 153 0 76
-0.510100 0.231457 0.194636 0 255 0
0.713991 -0.222856 0.307696 153 0 76
0.744235 0.116163 -0.228791 153 0 76
0.667477 -0.110128 -0.193653 127 127 0
0.367197 0.187348 0.044812 76 0 153
-0.570753 0.106025 0.506112 76 0 153
0.390515 0.265061 0.001582 0 255 0
0.268112 0.231457 -0.380566 0 255 0
-0.442716 0.160113 -0.410509 76 153 0
-0.388222 -0.063685 -0.295137 153 76 0
-0.513303 0.265061 -0.316144 0 255 0
-0.765260 -0.037347 -0.269017 76 0 153
-0.742722 -0.275964 0.477261 127 0 127
0.713991 -0.159628 0.429557 153 0 76
0.066406 0.165929 0.269557 0 127 127
0.713991 0.151837 0.149396 76 0 153
-0.371420 0.209133 0.345917 153 76 0
0.295642 0.020530 -0.410509 76 153 0
0.308390 0.188261 -0.135720 0 255 0
-0.699632 0.117146 0.471597 153 76 0
0.265977 0.186092 0.219577 255 0 0
0.336406 0.265061 0.154459 0 255 0
0.367197 -0.289694 0.163510 76 0 153
-0.804460 0.231457 -0.181468 0 255 0
-0.581597 0.206254 0.097578 0 255 0
-0.007600 -0.047677 -0.440753 76 153 0
-0.533312 0.231457 0.407727 0 255 0
0.325271 0.189818 0.372466 76 0 153
0.667659 0.128479 0.133877 0 127 127
-0.388222 0.006135 0.247347 153 76 0
0.367197 -0.283612 -0.367598 76 0 153
-0.363911 0.064204 -0.440753 76 153 0
0.308390 0.193390 0.108315 0 255 0
0.367197 -0.174633 0.030360 76 0 153
-0.190090 0.165929 0.035183 0 127 127
0.190231 0.231457 -0.047192 0 255 0
-0.192914 0.265061 -0.095421 0 255 0
0.452393 0.011350 0.391017 204 51 127
0.653184 -0.252061 0.543846 0 127 127
-0.434593 0.265061 0.198622 0 255 0
-0.800544 -0.305979 0.347553 76 0 153
-0.514779 -0.092208 0.493440 153 76 0
0.481831 0.071841 0.461516 76 153 0
0.164396 0.265061 -0.443657 0 255 0
0.106971 -0.271156 -0.410509 76 153 0
0.152512 0.240981 -0.474357 0 255 0
0.308390 0.188774 0.052865 0 255 0
-0.418466 -0.123548 0.214731 153 76 0
-0.826257 0.231457 -0.416349 0 255 0
0.593009 -0.115169 0.247393 127 127 0
0.775489 0.265061 0.148036 0 255 0
-0.795503 -0.195870 0.098812 76 0 153
0.001870 0.179909 0.164120 153 0 76
-0.675957 -0.187779 0.185963 153 76 0
-0.425589 0.231457 0.041028 0 255 0
-0.125310 0.165929 0.052261 0 127 127
0.746888 0.231457 0.261258 0 255 0
0.367197 0.224721 -0.006450 127 127 0
0.336954 -0.133256 0.058667 76 0 153
0.602181 -0.110128 0.172749 127 127 0
-0.765260 -0.246467 0.114084 0 255 0
0.274727 0.154168 0.373962 0 127 127
0.562768 -0.270924 0.327442 153 76 0
0.538611 0.206254 -0.286314 127 127 0
0.021436 0.265061 0.228222 0 255 0
0.327958 0.130645 -0.085911 76 0 153
0.212108 0.265061 -0.283519 0 255 0
-0.795503 -0.139956 0.339320 76 0 153
-0.519814 0.120762 0.493440 153 76 0
-0.291068 0.154168 -0.062175 0 127 127
-0.560927 0.190284 0.385907 153 76 0
0.367197 0.096793 0.431636 153 0 76
-0.679407 -0.270924 0.396786 127 0 127
0.744235 -0.031207 0.225994 153 0 76
-0.708845 0.206254 0.152740 0 255 0
0.395403 -0.275964 0.543493 153 76 0
0.681291 0.205883 -0.445793 76 153 0
-0.694717 0.032011 -0.328179 204 51 127
0.629183 0.265061 -0.207369 0 255 0
0.184744 0.165929 0.223013 255 0 0
-0.753498 0.130747 -0.153454 153 0 76
-0.402500 0.231457 -0.233243 153 76 0
-0.525229 0.206254 -0.070278 0 255 0
0.702230 -0.077455 -0.179615 255 0 0
0.362100 -0.497709 0.395523 76 153 0
0.702230 0.128126 0.253508 76 0 153
-0.430227 -0.040116 0.325392 76 0 153
0.336954 -0.252245 -0.360517 76 0 153
-0.354006 0.265061 -0.073588 0 255 0
0.574120 0.265061 0.063469 0 255 0
-0.714704 -0.109624 -0.249604 0 0 255
-0.257884 -0.139770 -0.410509 76 153 0
-0.371420 0.140327 -0.406466 153 76 0
-0.275748 0.106905 -0.440753 76 153 0
0.185602 -0.219395 -0.410509 76 153 0
-0.559471 -0.004593 -0.440753 76 153 0
-0.631252 0.098220 -0.339941 204 51 127
0.190235 0.154168 -0.050056 0 127 127
-0.668814 -0.173290 -0.324819 127 127 0
-0.312956 0.026285 -0.410509 76 153 0
0.336954 -0.231358 0.249476 76 0 153
0.748948 0.265061 -0.102584 0 255 0
-0.601906 0.206254 0.231506 0 255 0
0.677572 0.157873 -0.338260 153 76 0
-0.436786 0.231457 -0.104492 0 255 0
-0.589353 0.265061 0.027679 0 255 0
-0.551014 -0.229995 0.486719 0 0 255
-0.793627 -0.231063 -0.457555 153 76 0
-0.179175 0.265061 -0.402709 0 255 0
-0.466356 0.231457 0.289464 0 255 0
-0.418466 -0.251516 0.146391 255 0 0
0.193505 0.165929 -0.243031 0 127 127
0.336954 -0.159407 0.242315 76 0 153
0.207133 -0.027916 -0.410509 76 153 0
0.228579 0.182302 0.455722 255 0 0
0.713991 -0.118562 -0.250850 153 0 76
0.702230 -0.032911 -0.392226 255 0 0
0.533078 0.206254 0.330049 127 127 0
-0.453111 0.231457 0.396611 0 255 0
0.612414 0.265061 -0.279060 0 255 0
-0.763858 -0.075657 -0.328179 204 51 127
-0.740941 -0.160918 -0.440753 76 153 0
0.072276 -0.033843 -0.440753 76 153 0
-0.156934 0.165929 0.248044 0 127 127
-0.162058 0.231457 -0.185666 0 255 0
0.744235 -0.269267 -0.181682 153 0 76
0.367197 0.141891 -0.339005 153 76 0
0.539051 0.231457 -0.130597 127 127 0
0.547888 0.265061 -0.021485 0 255 0
0.699085 0.231457 0.335046 127 127 0
-0.811671 -0.476136 0.378442 76 0 153
0.445478 0.206254 -0.067973 127 127 0
-0.525558 0.206254 0.180901 0 255 0
0.356386 -0.440624 0.395303 76 153 0
-0.621231 -0.096640 -0.440753 76 153 0
0.744235 0.108859 -0.123333 153 0 76
0.489444 0.231457 0.045006 127 127 0
0.336954 -0.252866 -0.016128 76 0 153
-0.507519 -0.270924 -0.232501 127 0 127
-0.606984 -0.275964 -0.144771 127 0 127
-0.515776 -0.322544 -0.405469 76 153 0
-0.753498 -0.056281 0.457369 153 0 76
-0.371420 0.177551 0.098971 127 127 0
0.402382 0.206254 0.404565 127 127 0
-0.023872 0.265061 0.167523 0 255 0
0.694067 -0.035295 0.389267 204 51 127
0.661735 0.231457 0.159424 127 127 0
-0.041753 0.165929 0.122420 0 127 127
-0.371420 -0.213503 0.377062 153 0 76
-0.795503 0.129185 0.067014 76 0 153
-0.191809 0.165929 -0.258934 0 127 127
-0.010771 0.265061 0.257800 0 255 0
0.546599 -0.107893 0.061628 127 0 127
-0.670158 -0.114665 -0.033578 0 0 255
0.682649 0.231457 0.425226 127 127 0
0.744235 0.080769 -0.060980 153 0 76
-0.011806 0.154168 -0.212021 0 127 127
-0.418466 -0.007610 0.025058 76 0 153
0.376305 -0.270924 -0.251009 76 153 0
-0.713484 0.265061 -0.233867 0 255 0
0.336954 0.109406 -0.198506 76 0 153
0.249026 0.165929 -0.075557 0 127 127
0.752395 0.233080 0.436256 0 255 0
-0.795503 -0.238149 -0.213130 76 0 153
-0.007018 0.154168 0.078406 0 127 127
-0.419407 0.207687 0.418749 0 255 0
0.646962 0.206254 -0.190011 127 127 0
0.342616 0.265061 -0.147168 0 255 0
0.620971 -0.078301 0.389267 204 51 127
-0.175841 0.165929 0.441906 0 127 127
0.713991 -0.022932 -0.243125 153 0 76
-0.587842 0.206254 -0.343136 0 255 0
0.525940 0.154039 -0.440753 76 153 0
-0.584229 -0.312090 -0.445793 76 153 0
0.336954 -0.187113 -0.247446 76 0 153
-0.631322 -0.206307 -0.410509 76 153 0
-0.817026 0.231457 0.116274 0 255 0
-0.388222 -0.022748 0.208855 153 76 0
0.595156 0.046467 -0.209715 76 0 153
-0.454582 0.231457 0.356171 0 255 0
0.713991 -0.049272 0.070279 255 0 0
0.419109 -0.263276 0.216207 0 255 0
-0.561559 0.265061 -0.119289 0 255 0
0.367197 -0.064565 -0.289308 0 0 255
-0.510419 -0.184243 -0.313057 127 127 0
0.443482 0.206254 -0.397648 127 127 0
-0.489032 0.231457 0.148820 0 255 0
-0.753498 -0.206531 -0.096948 0 255 0
0.645802 -0.115169 -0.039328 127 127 0
0.046906 0.189853 0.518643 255 0 0
-0.765260 -0.078571 -0.158047 153 0 76
0.121102 0.265061 0.105241 0 255 0
0.639471 0.103256 -0.338260 153 76 0
0.532421 -0.190325 0.543846 0 127 127
-0.389814 -0.272463 -0.410509 76 153 0
-0.618659 0.231457 0.376850 0 255 0
0.428195 -0.110128 -0.095836 127 127 0
-0.227672 0.185339 0.498481 255 0 0
-0.507545 0.040864 0.471597 153 76 0
-0.773369 -0.202059 0.419511 76 0 153
0.514822 0.120888 0.490572 0 127 127
0.119087 0.167969 0.498481 255 0 0
0.713991 -0.227797 -0.098138 153 0 76
-0.471337 -0.275964 0.004481 127 0 127
0.673788 0.231457 -0.246273 127 127 0
-0.388222 -0.247020 -0.346731 153 76 0
-0.025533 0.231457 0.187163 0 255 0
-0.363629 0.265061 -0.432591 0 255 0
0.702230 -0.218069 0.272411 153 0 76
-0.622473 -0.275964 -0.281876 127 0 127
0.367197 -0.114494 0.207279 127 127 0
0.713991 0.107527 0.275049 76 0 153
0.563862 0.155383 -0.440753 76 153 0
-0.457190 -0.114665 0.441390 0 0 255
0.746793 0.231457 0.306895 0 255 0
-0.517253 0.183990 -0.410509 76 153 0
-0.597796 -0.270924 0.036584 127 0 127
-0.580428 -0.270924 0.249772 127 0 127
0.457993 0.231457 0.206050 0 255 0
0.372857 -0.270924 0.517763 153 76 0
-0.558970 -0.267201 0.185963 153 76 0
-0.548300 0.265061 -0.196498 0 255 0
-0.388222 -0.244847 -0.077097 153 76 0
-0.723956 -0.309290 0.412790 153 0 76
0.428703 0.051759 0.170324 76 0 153
-0.588669 -0.119307 -0.410509 76 153 0
-0.651614 0.206254 -0.085323 0 255 0
-0.341476 0.150807 -0.288220 127 0 127
0.367197 -0.179867 0.004903 76 153 0
0.572344 0.206254 -0.308714 127 127 0
-0.355487 -0.279117 -0.405469 76 153 0
-0.362622 -0.243674 -0.440753 76 153 0
-0.747279 0.231457 0.218217 0 255 0
0.378959 -0.235538 -0.127849 76 153 0
-0.442672 -0.109624 -0.035215 0 0 255
0.477126 0.231457 0.096658 0 255 0
0.759159 0.239808 -0.474357 0 255 0
-0.734290 -0.272604 -0.444393 76 153 0
0.774370 0.265061 -0.339982 0 255 0
0.744235 0.119161 -0.185140 153 0 76
0.374296 0.231457 -0.282425 127 127 0
-0.076301 0.085183 -0.410509 76 153 0
-0.120837 0.265061 -0.385469 0 255 0
0.505376 0.231457 -0.469570 0 255 0
-0.697153 0.231457 0.099754 0 255 0
-0.769759 -0.265718 0.419511 76 0 153
0.415140 -0.180193 0.243195 204 51 127
-0.418466 -0.260806 -0.024675 255 0 0
0.519732 0.206254 -0.210484 127 127 0
0.203992 0.054889 -0.440753 76 153 0
-0.681343 0.248994 -0.474357 0 255 0
-0.795503 -0.195465 -0.067364 76 0 153
-0.751666 -0.089098 -0.440753 76 153 0
0.415322 -0.078497 -0.440753 76 153 0
-0.256284 0.165929 0.117204 0 127 127
0.679823 -0.102824 0.411110 204 51 127
0.189419 0.194631 -0.410509 76 153 0
0.713991 -0.261059 0.003202 153 0 76
-0.442365 0.072127 0.493440 153 76 0
-0.822583 0.231457 0.283835 0 255 0
0.546502 -0.225269 0.579354 127 0 127
-0.418466 -0.244896 -0.103412 255 0 0
0.457938 0.231457 -0.222331 127 127 0
0.320152 -0.366566 0.391051 76 153 0
-0.477614 0.231457 -0.406335 0 255 0
0.619791 -0.115169 -0.391128 127 127 0
0.674644 -0.110128 -0.413258 127 127 0
-0.542263 0.231457 -0.262469 0 255 0
-0.388222 0.009382 -0.408368 153 76 0
-0.656154 0.231457 0.307914 0 255 0
-0.738304 -0.275964 0.178507 127 0 127
0.478970 0.046467 -0.088309 76 0 153
0.579730 0.206254 0.383532 127 127 0
-0.805459 -0.088073 0.372465 76 0 153
0.736756 -0.397560 0.372465 153 0 76
-0.253396 -0.192301 -0.440753 76 153 0
-0.265794 0.154168 -0.156921 0 127 127
0.649233 0.051759 0.165755 76 0 153
-0.795503 -0.225259 0.310668 76 0 153
-0.573949 0.206254 0.332363 0 255 0
-0.430227 -0.193783 0.388799 255 0 0
-0.556394 -0.123066 0.407513 76 0 153
0.674737 0.231457 -0.198394 127 127 0
0.664284 -0.010945 0.411110 204 51 127
-0.041594 0.165929 0.020574 0 127 127
-0.388222 -0.049319 0.276061 153 76 0
-0.812305 -0.133454 0.400456 76 0 153
-0.795503 -0.150530 -0.181833 76 0 153
0.139471 0.006283 -0.440753 76 153 0
-0.795503 0.153610 -0.019586 76 0 153
0.626885 -0.275964 0.518670 153 76 0
-0.392447 -0.237619 -0.410509 153 76 0
-0.630646 0.206254 -0.044114 0 255 0
-0.657866 0.231457 -0.134525 0 255 0
0.238164 0.154168 0.310133 0 127 127
0.713991 -0.209411 -0.286846 153 0 76
0.686571 0.231457 -0.429539 76 153 0
-0.371420 0.200287 -0.250064 153 76 0
-0.586775 -0.270924 -0.121586 127 0 127
-0.106125 0.265061 -0.177048 0 255 0
-0.753498 -0.088474 0.246689 153 0 76
0.713991 -0.268586 0.365436 153 0 76
0.381093 -0.275964 -0.017758 153 76 0
-0.218901 0.165929 -0.195766 0 127 127
-0.109598 0.231457 -0.330361 0 255 0
0.637432 -0.115169 -0.315668 127 127 0
0.118660 0.154168 0.135397 0 127 127
0.713991 -0.055340 0.236130 255 0 0
0.454248 0.051759 -0.285340 76 0 153
0.367197 -0.139988 -0.042256 76 0 153
-0.388222 -0.235164 -0.153412 153 76 0
-0.377142 0.231456 0.251721 0 255 0
0.237240 0.265061 -0.166329 0 255 0
-0.652624 0.231457 0.069438 0 255 0
0.163913 0.186092 0.264128 255 0 0
0.019009 0.165929 0.010050 0 127 127
-0.722075 0.216454 -0.410509 0 255 0
0.744571 0.231457 -0.165354 0 255 0
0.378959 -0.254676 0.194672 76 153 0
-0.717481 -0.133395 0.385907 76 0 153
0.713991 0.207931 0.227598 153 0 76
-0.112392 0.231457 0.239726 0 255 0
-0.418466 0.199237 -0.083085 153 76 0
0.639846 0.231457 0.259209 0 255 0
-0.765260 -0.254530 -0.403833 76 0 153
-0.343405 0.231457 -0.266578 0 255 0
0.378959 -0.210697 0.151910 76 153 0
0.713991 -0.231455 0.341091 153 0 76
0.563398 0.206254 0.289248 127 127 0
0.283447 -0.272604 -0.406919 76 153 0
-0.512643 -0.127019 -0.440753 76 153 0
0.780527 0.247634 0.196109 0 255 0
-0.765260 0.062013 0.168216 76 0 153
0.702230 -0.060048 0.378562 255 0 0
0.367197 -0.322055 0.305401 76 0 153
-0.423556 -0.153309 -0.198884 255 0 0
-0.349069 0.165929 -0.052653 0 127 127
0.713991 0.029709 0.031607 153 0 76
0.608529 -0.236029 -0.440753 76 153 0
-0.191852 0.154168 0.274215 0 127 127
0.320152 0.172905 -0.180316 0 255 0
0.433323 0.231457 -0.019791 127 127 0
0.119069 0.265061 0.352428 0 255 0
0.401335 0.095242 0.164120 76 153 0
-0.418466 -0.305360 0.267580 153 76 0
0.415635 -0.203545 0.219567 0 255 0
0.584739 0.051759 -0.127033 76 0 153
-0.620083 -0.109624 0.103593 0 0 255
-0.696588 -0.234819 -0.410509 76 153 0
0.753548 -0.492988 -0.456620 76 0 153
0.533044 -0.275964 0.283134 153 76 0
-0.689789 0.206254 -0.373739 0 255 0
-0.388222 -0.262518 -0.189157 153 76 0
0.598779 0.051759 0.185055 76 0 153
-0.548355 -0.016537 0.493440 153 76 0
0.367802 0.231457 0.263128 0 255 0
0.308390 0.154772 0.344261 0 255 0
-0.418466 0.143206 -0.088704 76 0 153
0.585050 0.206254 0.265836 127 127 0
0.367197 -0.111182 -0.111180 76 0 153
-0.430227 -0.269310 -0.104623 255 0 0
0.331913 -0.289228 -0.023300 76 0 153
-0.783379 0.070148 -0.410509 153 76 0
0.412258 0.206254 -0.274729 127 127 0
-0.414202 -0.265411 -0.410509 153 76 0
0.394814 0.156793 -0.440753 76 153 0
0.198202 0.137441 -0.410509 76 153 0
-0.605894 -0.114665 0.427316 0 0 255
0.395113 0.242796 -0.474357 0 255 0
0.308390 0.226332 -0.160756 0 255 0
0.641744 0.051759 -0.071933 76 0 153
0.252635 0.231457 -0.101166 0 255 0
-0.795503 0.075861 -0.314309 76 0 153
-0.801667 0.265061 -0.441523 0 255 0
0.713991 -0.210248 0.142889 153 0 76
-0.823554 0.231457 -0.256215 0 255 0
0.336402 -0.326370 0.268539 76 0 153
-0.497019 -0.114665 0.458058 0 0 255
0.336954 -0.088189 -0.135366 76 0 153
0.636317 -0.284365 0.389030 255 0 0
0.720166 0.265061 0.022553 0 255 0
0.111385 0.029209 -0.410509 76 153 0
0.367197 -0.292066 0.208154 76 0 153
-0.273274 0.154168 0.418356 0 127 127
0.336954 -0.012277 -0.338421 76 0 153
-0.546256 0.231457 -0.329111 0 255 0
0.331913 -0.293100 0.226532 76 0 153
-0.795503 0.127975 -0.365793 76 0 153
-0.418466 0.210102 0.361546 153 76 0
-0.418466 -0.097293 -0.001360 76 0 153
0.189575 0.136935 0.385907 76 0 153
-0.626136 0.101799 0.498205 76 0 153
-0.440172 0.231457 0.274160 0 255 0
0.705503 0.039410 0.430700 76 0 153
0.713991 0.001004 0.263728 255 0 0
0.586086 -0.023543 -0.410509 76 153 0
-0.418466 0.060633 -0.040412 76 0 153
-0.418466 0.057586 -0.184406 153 76 0
0.199962 0.024813 -0.440753 76 153 0
-0.547663 0.068519 0.471597 153 76 0
-0.458907 -0.109624 -0.334949 0 0 255
-0.103843 0.231457 -0.092536 0 255 0
-0.699618 0.231457 0.187731 0 255 0
-0.795503 -0.023076 -0.019864 76 0 153
0.616362 -0.008524 -0.440753 76 153 0
0.455791 0.265061 0.018390 0 255 0
-0.388222 0.062782 0.126602 153 76 0
-0.418466 -0.243164 0.493404 0 0 255
0.569023 0.231457 0.064500 127 127 0
0.386147 0.231457 -0.111338 127 127 0
0.720026 -0.326370 0.261092 153 0 76
0.309828 -0.216542 -0.440753 76 153 0
-0.418466 -0.100536 0.044178 153 76 0
0.378828 0.231457 -0.321628 127 127 0
-0.430227 0.173143 0.374929 76 0 153
-0.765260 0.152042 0.341339 153 0 76
-0.264370 0.231456 0.162564 0 255 0
0.507451 -0.230043 0.569580 127 0 127
-0.374761 0.059996 -0.410509 76 153 0
-0.353354 0.231457 -0.200377 0 255 0
0.336954 -0.152179 0.015201 76 0 153
-0.376843 0.231457 0.413369 153 0 76
-0.765260 -0.253852 -0.338981 76 0 153
-0.731986 0.231457 -0.215287 0 255 0
0.479435 0.231457 0.335170 127 127 0
-0.680154 0.265061 0.028783 0 255 0
-0.767755 -0.468572 -0.435625 153 76 0
0.472828 -0.275964 0.205114 153 76 0
-0.387485 0.231456 0.095000 0 255 0
0.639806 -0.229155 0.543846 0 127 127
0.085280 0.145576 -0.440753 76 153 0
-0.760057 0.176111 -0.307671 153 0 76
0.698895 -0.325312 -0.405469 76 153 0
-0.696816 0.231457 -0.440955 76 153 0
-0.343744 0.265061 0.403808 0 255 0
-0.212178 0.001176 -0.440753 76 153 0
0.536506 0.039410 0.473718 76 153 0
0.480586 0.180776 0.385907 153 0 76
-0.593296 0.265061 -0.246107 0 255 0
0.678937 0.051759 -0.205000 76 0 153
-0.692128 0.231457 -0.187262 0 255 0
-0.483595 -0.275964 0.107840 127 0 127
-0.765260 -0.093993 -0.115928 76 0 153
-0.743319 0.045738 -0.339941 204 51 127
-0.677697 0.231457 0.172379 0 255 0
0.573651 -0.272604 -0.409243 76 153 0
0.202886 0.049979 -0.410509 76 153 0
0.739561 0.231457 0.075472 0 255 0
-0.609536 -0.114665 0.375412 0 0 255
0.025788 0.165929 0.269480 0 127 127
0.618162 -0.115169 -0.233503 127 127 0
-0.647704 0.231457 0.031246 0 255 0
0.417596 0.103092 -0.410509 76 153 0
0.345426 0.231457 0.066910 76 0 153
-0.548355 -0.105876 -0.339941 204 51 127
0.211894 0.169708 0.389944 255 0 0
0.533867 -0.106461 0.411110 204 51 127
0.713991 -0.054082 -0.073741 153 0 76
-0.427300 0.265061 0.377123 0 255 0
0.485411 -0.115169 -0.057755 127 127 0
-0.227875 0.154168 -0.118031 0 127 127
-0.453635 0.048266 -0.339941 204 51 127
-0.607077 -0.275964 0.416276 127 0 127
-0.316588 0.165929 0.106853 0 127 127
-0.448491 -0.270924 0.417874 127 0 127
-0.811372 0.265061 -0.209757 0 255 0
0.609792 -0.275964 -0.234432 153 76 0
0.249555 0.265061 -0.364267 0 255 0
-0.418466 0.100257 -0.372148 153 76 0
0.367197 -0.239210 0.030127 76 153 0
0.418775 -0.295079 0.412790 255 0 0
0.367197 -0.007328 0.299652 0 0 255
-0.465359 -0.114665 -0.126640 0 0 255
0.744235 -0.092589 -0.058165 153 0 76
0.713991 0.209207 -0.106143 127 127 0
0.653181 -0.042320 0.411110 204 51 127
-0.418466 -0.309062 -0.386152 153 76 0
0.544161 0.206254 -0.357321 127 127 0
0.702230 0.107437 0.354086 76 0 153
-0.319598 0.265061 0.148737 0 255 0
-0.371420 0.156724 0.440636 127 127 0
0.760494 -0.217013 -0.411646 76 0 153
0.154473 0.265061 -0.058851 0 255 0
-0.359658 0.195605 0.119449 127 127 0
-0.418466 -0.149311 -0.112050 153 76 0
0.744235 -0.259492 -0.409427 153 0 76
0.336954 -0.161824 0.330352 76 0 153
-0.359658 0.184630 -0.204180 127 127 0
-0.430227 0.168907 0.230360 76 0 153
-0.693668 -0.275964 -0.290274 127 0 127
0.744235 0.055263 0.121577 153 0 76
0.367197 -0.231262 -0.224094 76 153 0
-0.545833 -0.114665 0.326092 0 0 255
-0.474258 0.152702 0.493440 153 76 0
-0.211337 0.154168 -0.152617 0 127 127
0.506774 -0.110128 0.101995 127 127 0
0.650357 -0.270924 0.028303 153 76 0
0.367197 0.085390 -0.129965 153 0 76
0.026111 0.265061 -0.315309 0 255 0
-0.715489 -0.300163 0.385907 153 0 76
-0.400181 0.231457 -0.055841 0 255 0
-0.765260 -0.161276 -0.280609 0 255 0
-0.753498 0.059626 -0.096527 153 0 76
0.385188 -0.275964 -0.077272 153 76 0
-0.092680 -0.305266 -0.445793 76 153 0
-0.442275 0.206254 0.111648 0 255 0
0.421720 -0.110128 -0.005355 127 127 0
-0.753498 0.119164 0.301971 153 0 76
-0.795503 0.162993 0.020575 76 0 153
0.574730 0.051759 0.346422 76 0 153
0.394778 -0.121890 -0.418938 127 127 0
-0.765260 -0.097248 0.375655 153 0 76
0.528340 -0.253383 0.565689 0 127 127
-0.455710 0.231457 -0.088085 0 255 0
-0.817013 0.265061 -0.107224 0 255 0
0.705306 -0.110128 -0.069266 255 0 0
-0.631628 0.164006 0.471597 153 76 0
-0.683759 -0.114665 -0.112618 0 0 255
-0.193495 0.154168 0.334112 0 127 127
0.713991 0.049426 0.256156 76 0 153
0.560339 0.130949 0.137237 0 127 127
0.695666 0.206254 0.141607 127 127 0
-0.745232 0.142445 -0.328179 204 51 127
0.336954 -0.123283 0.133679 76 0 153
-0.765260 0.164016 0.145734 153 0 76
-0.190621 0.165929 -0.125484 0 127 127
0.422650 0.163640 -0.350022 153 76 0
0.367197 -0.280525 0.269301 76 0 153
-0.732957 -0.007084 0.471597 153 76 0
0.424704 0.206254 0.197338 127 127 0
0.635688 -0.115169 0.016341 127 127 0
0.367197 -0.212557 0.436279 76 153 0
-0.710661 0.137585 0.493440 153 76 0
0.184767 0.201319 0.498481 255 0 0
-0.568988 0.265061 -0.447226 0 255 0
0.641211 -0.037168 0.389267 204 51 127
-0.123767 0.265061 -0.468242 0 255 0
-0.548434 0.013673 -0.328179 204 51 127
-0.486449 -0.109624 -0.019081 0 0 255
-0.332816 0.231457 -0.040358 0 255 0
0.433137 0.231457 -0.305738 127 127 0
-0.286443 0.265061 0.181121 0 255 0
0.744235 0.153414 0.336481 153 0 76
-0.359658 0.186525 0.288532 127 127 0
-0.746777 0.231457 0.078708 0 255 0
0.190703 0.231457 -0.421551 76 153 0
0.713991 -0.120651 0.062545 153 0 76
0.155536 0.165929 -0.018079 0 127 127
0.480139 -0.115169 0.242231 127 127 0
0.165128 0.154168 0.036134 0 127 127
-0.016264 0.231457 -0.207008 0 255 0
-0.406094 0.231456 0.112694 0 255 0
-0.795503 0.107658 -0.231202 76 0 153
-0.787743 0.265061 0.044273 0 255 0
-0.430227 -0.010331 0.250364 76 0 153
-0.563124 -0.114665 0.091558 0 0 255
0.389457 0.231457 0.366517 127 127 0
0.713991 0.156372 0.103207 153 0 76
0.579772 -0.112469 -0.422271 127 127 0
-0.071869 0.180837 -0.286174 127 0 127
0.310706 0.175278 -0.410509 76 153 0
-0.418466 -0.221316 -0.058805 153 76 0
0.413942 0.231457 -0.418290 76 153 0
-0.765260 0.214198 -0.425077 76 153 0
0.655322 0.076979 0.461516 76 153 0
-0.702370 -0.129129 0.412790 76 0 153
-0.765260 0.110884 -0.043382 153 0 76
0.116179 0.231457 0.373598 0 255 0
0.675232 0.265061 0.112757 0 255 0
-0.247883 0.231457 -0.095541 0 255 0
0.713991 0.159152 0.062401 76 0 153
-0.508686 -0.114665 0.142541 0 0 255
-0.505476 0.265061 0.026470 0 255 0
-0.714253 -0.275964 -0.308280 127 0 127
-0.765260 0.210879 0.053668 76 0 153
