ply
format ascii 1.0
element vertex 1283
property float x
property float y
property float z
property uchar red
property uchar green
property uchar blue
end_header
0.015422 0.154168 0.112016 0 127 127
0.276131 0.231457 0.352911 0 255 0
0.650960 -0.204880 -0.440753 76 153 0
-0.505437 0.231457 0.370467 0 255 0
0.480999 0.051759 0.309120 76 0 153
0.682553 -0.079583 0.088511 127 127 0
-0.762495 -0.282685 -0.266761 127 0 127
0.430270 0.146274 0.164120 76 153 0
-0.192240 0.165929 0.295941 0 127 127
0.095509 0.154168 0.009808 0 127 127
-0.765260 -0.299029 0.290112 76 0 153
0.369649 -0.123066 0.405200 0 0 255
-0.547493 -0.131653 -0.440753 76 153 0
0.573780 0.231457 0.186472 127 127 0
-0.805413 -0.265487 0.372465 76 0 153
-0.795503 -0.129895 -0.174854 76 0 153
-0.596593 -0.204386 0.159080 76 0 153
-0.539564 0.231457 0.213581 0 255 0
-0.795503 -0.241501 0.049419 76 0 153
0.336954 -0.087366 0.222328 76 0 153
-0.371420 0.136266 0.242433 153 76 0
-0.430227 0.006317 -0.303828 153 76 0
-0.447601 0.206254 0.145819 0 255 0
-0.742318 0.265061 -0.138095 0 255 0
-0.396318 -0.492306 0.414897 153 0 76
0.320152 0.186400 -0.199497 0 255 0
-0.502366 0.265061 -0.351436 0 255 0
0.143450 0.231457 -0.069887 0 255 0
0.402755 -0.270924 0.186471 153 76 0
0.569530 0.051759 -0.308067 76 0 153
-0.430227 -0.060848 0.107289 76 0 153
-0.559278 0.231457 -0.168701 0 255 0
-0.440080 0.265061 0.313750 0 255 0
-0.795503 -0.119991 -0.049808 76 0 153
0.367197 -0.088059 -0.204097 0 0 255
-0.732346 0.055213 -0.440753 76 153 0
-0.295327 0.231456 0.304169 0 255 0
0.551540 0.108590 0.137237 0 127 127
0.436527 -0.110128 -0.169774 127 127 0
0.241961 0.265061 -0.152006 0 255 0
0.525580 0.046467 0.443273 76 0 153
0.378959 -0.075177 0.110068 76 0 153
-0.388222 -0.193351 -0.242184 153 76 0
0.544512 0.231457 -0.186120 127 127 0
0.744235 -0.237329 0.013900 153 0 76
-0.589325 0.231457 0.275976 0 255 0
0.557074 -0.185411 0.246450 204 51 127
-0.587682 0.231457 0.168777 0 255 0
-0.656098 0.231457 -0.026884 0 255 0
0.365139 -0.463676 0.409842 76 153 0
-0.753498 0.169210 0.123259 153 0 76
-0.661922 0.035003 -0.339941 204 51 127
-0.624504 0.231457 0.117698 0 255 0
0.527250 0.051759 -0.230463 76 0 153
-0.812305 0.166313 -0.424820 153 76 0
0.460607 0.046467 -0.135226 76 0 153
-0.765260 -0.248111 -0.051232 0 255 0
0.596009 0.231457 -0.170788 0 255 0
-0.786417 0.231457 -0.402351 76 0 153
0.367197 -0.206283 0.202950 76 153 0
0.187174 0.265061 -0.109340 0 255 0
0.646914 -0.110128 -0.274425 127 127 0
0.713991 0.190169 -0.371588 153 0 76
0.054322 0.231457 0.343862 0 255 0
0.367197 0.185742 -0.044082 153 0 76
-0.419761 0.265061 0.094364 0 255 0
0.336954 -0.008660 -0.398607 76 153 0
-0.565847 -0.262365 -0.313057 127 0 127
-0.753498 -0.039395 0.365566 153 0 76
-0.082541 0.165929 0.269118 0 127 127
0.639666 0.206254 -0.101614 0 255 0
-0.388222 -0.178148 -0.112956 153 76 0
-0.388222 0.012311 -0.015110 153 76 0
0.080632 0.165929 0.393499 0 127 127
0.713991 0.037403 0.294874 153 0 76
-0.208775 0.192143 -0.297936 127 0 127
0.518915 0.265061 -0.259131 0 255 0
-0.578795 0.265061 0.401835 0 255 0
-0.380045 -0.348797 0.372465 153 0 76
-0.048232 -0.206937 -0.410509 76 153 0
-0.175664 0.177691 -0.445244 76 153 0
-0.143012 0.265061 0.106723 0 255 0
0.351471 0.189175 -0.410509 76 153 0
0.163393 0.265061 -0.153430 0 255 0
0.179867 0.265061 -0.285922 0 255 0
0.711515 0.085344 0.483359 76 153 0
-0.011981 0.165929 0.037985 0 127 127
0.021319 0.165929 0.164131 0 127 127
-0.677507 0.231457 0.229074 0 255 0
0.322827 0.265061 0.109393 0 255 0
0.148987 0.231457 0.507192 255 0 0
-0.795503 -0.160578 -0.270462 76 0 153
-0.525170 -0.151629 0.492309 0 0 255
0.614721 -0.110128 -0.338526 127 127 0
-0.430227 -0.021498 0.336863 76 0 153
0.629734 0.046467 0.372902 204 51 127
0.118841 -0.210631 -0.410509 76 153 0
0.058542 0.165929 0.281552 0 127 127
-0.434034 0.265061 -0.119178 0 255 0
0.693258 0.265061 -0.335558 0 255 0
0.675960 -0.183329 0.565689 0 127 127
0.497626 -0.110128 -0.271363 127 127 0
0.384002 0.265061 0.034395 0 255 0
0.744235 0.111963 0.237751 153 0 76
0.244181 0.154168 -0.263598 0 127 127
0.401791 0.231457 0.156719 0 255 0
0.626366 -0.272604 -0.410207 76 153 0
0.583680 0.231457 -0.231323 0 255 0
-0.581353 -0.109624 0.078297 0 0 255
-0.767916 -0.060660 -0.457555 153 76 0
-0.765260 -0.302130 -0.223136 127 0 127
-0.211561 0.165929 -0.145014 0 127 127
-0.753498 -0.090277 0.433102 153 0 76
0.378959 0.003166 -0.084004 0 0 255
0.121616 0.165929 0.255340 0 127 127
0.713991 0.071002 0.118800 76 0 153
-0.533437 0.074535 -0.328179 204 51 127
0.321308 -0.200633 0.372990 76 153 0
-0.667806 -0.109624 0.223207 0 0 255
0.508442 -0.072452 -0.440753 76 153 0
0.367197 -0.287394 -0.322973 76 0 153
0.744235 0.074408 -0.351378 153 0 76
-0.732661 -0.048116 -0.410509 76 153 0
-0.153354 0.192711 0.164120 153 0 76
-0.339074 0.128488 -0.440753 76 153 0
0.660162 0.046467 -0.291347 76 0 153
-0.141299 0.231457 0.077971 0 255 0
0.378959 -0.248317 0.375814 76 153 0
-0.795503 0.063025 0.293673 76 0 153
0.723803 -0.039539 -0.410509 76 0 153
0.252281 -0.051577 -0.440753 76 153 0
-0.574873 0.265061 0.344324 0 255 0
0.562578 -0.115169 -0.019863 127 127 0
0.367197 0.103049 -0.042496 153 0 76
0.561519 -0.187876 -0.410509 76 153 0
-0.740217 0.013830 -0.328179 204 51 127
-0.048462 0.171666 0.498481 255 0 0
-0.418466 -0.299368 0.042122 153 76 0
-0.430227 0.058200 0.335127 76 0 153
0.455174 -0.275964 0.349624 153 76 0
-0.765260 0.200501 0.391759 0 255 0
-0.231098 -0.024339 -0.440753 76 153 0
0.702230 0.082279 0.295961 76 0 153
-0.697709 0.206254 -0.258338 0 255 0
0.331913 -0.322408 -0.017078 76 0 153
-0.765260 0.054374 0.084811 153 0 76
-0.677239 0.265061 -0.444339 0 255 0
0.353790 0.231457 0.231880 76 0 153
-0.430227 -0.012444 -0.113961 76 0 153
-0.795503 0.030580 -0.211182 76 0 153
-0.418466 -0.304968 0.283470 153 76 0
0.406921 -0.110128 0.219907 127 127 0
-0.102102 0.265061 -0.297403 0 255 0
-0.752565 -0.270924 0.169566 127 0 127
-0.621870 0.143345 0.493440 153 76 0
0.567803 -0.063862 0.061628 127 0 127
-0.765260 -0.253113 -0.374871 76 0 153
0.320152 0.003792 0.417203 76 153 0
0.188046 0.231457 -0.331229 0 255 0
-0.457871 0.231457 0.413311 0 255 0
-0.577649 0.176111 -0.334169 204 51 127
-0.656784 0.179371 0.404606 153 76 0
0.667998 0.011350 0.386405 204 51 127
0.217722 0.072749 -0.440753 76 153 0
-0.789995 0.231457 -0.266742 0 255 0
-0.151807 0.165929 0.204027 0 127 127
0.367197 -0.043256 0.040792 76 0 153
-0.681536 -0.275964 0.205655 127 0 127
-0.511060 -0.249749 0.486719 0 0 255
0.676728 0.046467 -0.095655 76 0 153
-0.031293 0.265061 -0.161571 0 255 0
-0.002580 -0.237055 -0.410509 76 153 0
0.380365 -0.292690 -0.445793 76 153 0
0.686126 0.265061 0.312975 0 255 0
0.215575 0.231457 0.113685 0 255 0
-0.532670 -0.110549 -0.410509 76 153 0
0.543347 0.231457 -0.027482 0 255 0
0.744235 -0.195402 -0.176511 153 0 76
-0.675845 -0.275964 0.342591 127 0 127
-0.385063 -0.272604 0.284754 153 76 0
-0.418466 -0.302961 -0.350453 153 76 0
-0.820842 0.231457 0.096998 0 255 0
-0.430200 -0.080950 0.295176 76 0 153
0.284166 0.154168 0.097349 0 127 127
-0.812305 -0.113692 -0.445223 153 76 0
-0.704430 -0.275964 -0.172031 127 0 127
0.634309 -0.056126 0.389267 204 51 127
-0.359627 0.154168 0.162899 0 127 127
-0.252639 0.231457 -0.011954 0 255 0
0.072875 0.009772 -0.410509 76 153 0
0.654475 -0.115169 0.256570 127 127 0
0.331913 -0.300562 -0.139667 76 0 153
-0.303451 0.072808 -0.440753 76 153 0
0.713991 -0.005214 0.151620 255 0 0
-0.678038 0.265061 -0.159719 0 255 0
-0.437958 -0.170661 -0.410509 76 153 0
-0.270239 0.154168 0.009968 0 127 127
0.257704 0.188029 0.175882 255 0 0
-0.625837 -0.055866 -0.328179 204 51 127
0.270333 -0.168501 -0.440753 76 153 0
-0.123943 -0.026003 -0.410509 76 153 0
-0.002449 0.231457 -0.263793 0 255 0
0.059822 0.231457 -0.365396 0 255 0
-0.765260 0.213378 0.178151 76 0 153
0.331913 -0.322594 0.363141 76 153 0
0.509489 -0.275964 -0.054462 153 76 0
-0.388222 -0.036275 0.173614 153 76 0
0.143547 0.154168 -0.072587 0 127 127
-0.795503 -0.182110 0.323211 76 0 153
-0.404801 0.231456 0.137649 0 255 0
0.751998 -0.057981 0.419511 153 0 76
-0.463874 0.265061 0.206256 0 255 0
0.237461 0.265061 -0.007998 0 255 0
-0.430075 0.265061 -0.456968 0 255 0
0.614703 0.265061 0.100146 0 255 0
0.718878 -0.214770 -0.457555 76 0 153
0.650605 -0.284985 -0.445793 76 153 0
-0.059761 0.265061 -0.466421 0 255 0
-0.499298 -0.060230 -0.328179 204 51 127
-0.466432 -0.200219 0.159080 76 0 153
0.744235 0.032808 -0.053700 153 0 76
0.430183 0.046467 0.111588 76 0 153
-0.254138 0.231457 0.413833 0 255 0
-0.421680 -0.282685 0.232407 127 0 127
0.336954 -0.118488 -0.225544 76 0 153
0.713991 -0.287780 0.241646 153 0 76
-0.765260 0.095430 -0.332201 204 51 127
0.503577 0.265061 0.311654 0 255 0
-0.256659 0.265061 0.015833 0 255 0
0.330905 0.060339 0.419511 76 153 0
0.651099 0.231457 0.264249 0 255 0
-0.795503 -0.036536 -0.367465 76 0 153
0.744235 -0.120221 -0.207397 153 0 76
0.096702 0.231457 -0.016560 0 255 0
0.639092 -0.275964 0.181039 153 76 0
0.681363 0.265061 0.155034 0 255 0
-0.694942 0.206254 0.032551 0 255 0
0.504716 0.265061 0.372112 0 255 0
-0.260537 0.154168 0.183363 0 127 127
-0.785646 0.067270 0.372466 76 0 153
0.713991 0.033585 -0.326260 76 0 153
0.633899 0.231457 -0.309730 127 127 0
0.719527 0.265061 0.392147 0 255 0
0.075977 0.232117 0.435292 0 255 0
0.109213 0.231457 -0.394404 0 255 0
0.256550 0.265061 0.400450 0 255 0
0.424537 -0.115169 -0.255614 127 127 0
0.744235 -0.073969 -0.178456 153 0 76
0.230422 0.265061 -0.373659 0 255 0
-0.765260 0.020202 -0.105068 76 0 153
0.284111 0.168189 0.518643 0 127 127
-0.418466 -0.167260 0.226219 153 76 0
0.756588 -0.157919 0.419511 153 0 76
-0.462830 0.206254 -0.051609 0 255 0
-0.545968 0.231457 -0.118032 0 255 0
0.224497 0.165929 0.480571 255 0 0
0.677883 0.057980 0.483359 76 153 0
-0.753498 0.097371 0.256016 153 0 76
0.090958 0.265061 0.394985 0 255 0
0.565608 -0.065125 -0.440753 76 153 0
-0.101070 0.264657 -0.473081 0 255 0
-0.388222 -0.109181 0.325011 153 76 0
-0.418466 -0.057247 0.467843 153 76 0
-0.546681 -0.270924 0.150136 127 0 127
0.198447 0.176882 -0.410509 76 153 0
0.713991 -0.050970 -0.258531 255 0 0
0.009098 0.231458 0.344751 0 255 0
-0.295660 -0.134519 -0.410509 76 153 0
-0.791301 -0.291168 0.419511 76 0 153
-0.687620 -0.270924 -0.266114 127 0 127
0.746691 0.265061 -0.427843 0 255 0
-0.383181 -0.297051 0.253389 153 76 0
-0.335138 -0.190922 -0.440753 76 153 0
-0.456436 -0.187031 0.486719 0 0 255
-0.418466 0.080965 0.217167 76 0 153
-0.304599 0.231457 0.051750 0 255 0
-0.510172 0.231457 0.115266 0 255 0
0.744235 -0.221149 -0.353619 153 0 76
0.371868 0.039410 0.435981 76 153 0
0.749275 -0.326283 -0.132895 153 0 76
-0.065321 0.153113 -0.297936 127 0 127
-0.371420 0.157833 0.094915 0 127 127
0.744235 -0.074692 0.022158 153 0 76
0.489060 0.217242 -0.445793 0 255 0
0.675137 0.231457 -0.460362 0 255 0
0.713991 -0.253710 0.064376 153 0 76
0.403969 -0.115169 0.118653 127 127 0
-0.795503 -0.161408 0.205109 76 0 153
0.455922 0.231457 -0.287829 0 255 0
0.558021 0.161073 -0.410509 76 153 0
0.368600 0.175254 0.002176 76 0 153
-0.643406 0.119214 -0.440753 76 153 0
0.320152 0.169188 0.024439 76 0 153
-0.477357 0.231457 0.163843 0 255 0
-0.529279 -0.109624 -0.339859 0 0 255
0.066354 0.154168 -0.139042 0 127 127
0.470965 0.231457 -0.175510 0 255 0
0.131503 0.231457 -0.250097 0 255 0
-0.418466 -0.213238 0.068379 255 0 0
0.749275 -0.319928 -0.011460 153 0 76
0.320152 0.072276 0.382913 76 153 0
-0.585541 -0.299204 -0.405469 76 153 0
-0.795503 0.155965 0.095494 76 0 153
-0.753498 0.106998 0.038930 76 0 153
0.532936 0.046467 0.283816 76 0 153
0.696949 0.231457 0.239686 127 127 0
-0.470368 0.179371 0.406279 153 76 0
0.702230 -0.193247 0.013264 153 0 76
-0.371420 0.169056 -0.263585 0 127 127
0.505114 0.046467 0.365192 76 0 153
0.508010 0.046467 0.000672 76 0 153
0.667881 0.177018 0.461668 76 153 0
0.202326 0.265061 -0.401457 0 255 0
-0.340050 0.231456 0.239764 0 255 0
-0.013209 0.231457 0.195673 0 255 0
0.424018 0.046467 0.160579 76 0 153
-0.683814 -0.109624 0.417746 0 0 255
-0.812305 -0.049582 -0.414760 153 76 0
0.640771 0.231457 -0.017841 127 127 0
-0.520783 0.265061 -0.400459 0 255 0
-0.771801 -0.513886 0.379107 76 0 153
0.564061 0.231457 -0.405131 127 127 0
-0.795503 -0.197742 -0.093598 76 0 153
-0.212978 0.231457 0.018503 0 255 0
-0.649105 -0.047324 -0.410509 76 153 0
-0.634018 0.231457 -0.136520 0 255 0
-0.595671 -0.077489 0.493440 153 76 0
0.702527 -0.282685 0.449275 153 0 76
-0.182050 0.231457 -0.381405 0 255 0
-0.765341 -0.078155 -0.410509 76 153 0
0.449138 -0.275964 0.160539 153 76 0
0.367197 -0.240962 0.524197 76 153 0
-0.176394 -0.256748 -0.440753 76 153 0
-0.461023 0.206254 0.243122 0 255 0
0.680450 0.046467 -0.241175 76 0 153
-0.211723 0.154168 0.144277 0 127 127
0.040912 -0.033999 -0.440753 76 153 0
-0.375929 -0.491125 0.381624 153 0 76
-0.140440 0.100424 -0.440753 76 153 0
0.713991 -0.298116 -0.087834 153 76 0
-0.517957 0.030104 -0.328179 204 51 127
-0.339388 0.165929 0.375621 0 127 127
-0.623609 -0.109624 -0.193321 0 0 255
-0.677181 0.231457 -0.195578 0 255 0
-0.309825 0.265061 0.387435 0 255 0
0.595609 -0.270924 -0.071646 153 76 0
-0.336879 0.021657 -0.410509 76 153 0
0.631771 0.231457 -0.257250 0 255 0
0.510601 0.265061 0.241849 0 255 0
-0.026046 0.130645 0.381666 76 0 153
0.019632 0.265061 -0.361929 0 255 0
-0.388222 -0.145859 0.251358 153 76 0
-0.765260 0.172790 -0.111130 153 0 76
-0.765260 -0.062554 0.485129 153 76 0
0.409476 0.206254 0.203746 127 127 0
0.749275 -0.291810 -0.203818 153 0 76
0.016308 -0.326370 -0.406528 76 153 0
-0.399366 -0.298454 -0.405469 153 76 0
0.626380 0.051759 0.079992 76 0 153
0.766804 0.231457 0.358846 0 255 0
-0.388222 -0.133640 0.203596 153 76 0
-0.795503 0.173817 0.284229 76 0 153
0.567434 -0.275964 0.399150 255 0 0
-0.727304 0.206254 0.356685 0 255 0
-0.699281 0.260033 0.436313 0 255 0
-0.597738 -0.109624 0.148101 0 0 255
0.374464 0.265061 -0.193232 0 255 0
0.367197 -0.245616 -0.390106 76 0 153
0.285256 0.231457 -0.363392 0 255 0
0.672083 0.231457 -0.392286 0 255 0
0.477932 0.231457 -0.319947 127 127 0
0.672860 0.265061 0.412222 0 255 0
0.287105 0.265061 -0.086010 0 255 0
-0.575035 -0.109624 -0.301830 0 0 255
0.680098 0.046467 0.116559 76 0 153
-0.753498 0.107469 -0.192977 153 0 76
-0.418466 0.175009 0.318201 153 76 0
-0.082873 0.165929 0.381055 0 127 127
0.744235 0.046010 0.014074 153 0 76
-0.453515 -0.109624 0.241440 0 0 255
-0.717945 -0.011774 0.493440 153 76 0
0.713991 -0.258458 -0.098441 153 0 76
0.278976 0.165929 -0.101426 0 127 127
0.331913 -0.292743 0.290132 76 0 153
-0.535537 -0.198770 0.486719 0 0 255
-0.094050 0.093056 -0.410509 76 153 0
0.465183 0.088530 0.461516 76 153 0
0.713991 0.159672 -0.003399 76 0 153
-0.297278 0.198754 0.164120 153 0 76
0.153682 0.154168 0.191303 0 127 127
0.773950 0.265061 -0.201132 0 255 0
-0.095728 0.231456 0.369800 0 255 0
0.749275 0.202277 -0.199288 153 0 76
0.668307 0.092785 -0.410509 76 153 0
-0.488296 -0.035094 0.493440 153 76 0
-0.081001 -0.242550 -0.440753 76 153 0
-0.291501 0.231457 -0.379070 0 255 0
0.721408 -0.495948 0.373453 153 0 76
0.713991 0.183887 0.391777 153 0 76
-0.658643 0.055756 -0.410509 76 153 0
-0.244104 0.265061 0.251853 0 255 0
-0.796907 0.265061 -0.196166 0 255 0
0.279968 0.069856 -0.410509 76 153 0
0.744235 -0.123503 0.197548 153 0 76
0.320152 0.186026 0.248129 76 0 153
0.115227 0.265061 -0.238089 0 255 0
0.550881 0.231457 -0.085939 0 255 0
-0.218217 -0.112298 -0.440753 76 153 0
0.744235 0.050738 0.349920 153 0 76
0.543833 0.051759 0.243568 76 0 153
-0.802699 -0.294616 -0.410509 76 0 153
0.766173 0.265061 0.120570 0 255 0
-0.800544 -0.317170 -0.246788 76 0 153
0.713991 -0.199125 -0.278751 153 0 76
0.757165 0.169867 -0.410509 76 0 153
0.749275 0.177835 0.104255 153 0 76
-0.079760 0.265061 -0.039047 0 255 0
0.713991 0.229015 0.000570 0 255 0
0.584757 0.046467 0.394711 76 0 153
0.378959 0.149623 0.218410 76 0 153
-0.590735 0.265061 0.000992 0 255 0
-0.765260 -0.004270 0.190852 76 0 153
-0.049257 0.056965 -0.410509 76 153 0
-0.068094 0.231457 -0.429760 0 255 0
0.367197 0.006910 -0.320543 0 0 255
-0.625919 0.100618 -0.410509 76 153 0
-0.765260 -0.054857 0.203913 153 0 76
-0.335514 0.182039 -0.286174 127 0 127
0.667745 0.231457 0.072785 127 127 0
-0.664646 0.231457 0.104902 0 255 0
0.336954 0.074990 -0.159050 76 0 153
0.367197 0.022439 -0.275408 76 0 153
-0.213647 0.165929 -0.213362 0 127 127
-0.418466 0.189509 -0.100133 153 76 0
-0.554635 0.121055 -0.328179 204 51 127
-0.657671 -0.114665 0.285217 0 0 255
0.742916 0.265061 0.257303 0 255 0
-0.434250 0.182144 0.385907 76 0 153
-0.194428 0.002582 -0.410509 76 153 0
-0.355705 -0.316699 -0.405469 76 153 0
0.158076 -0.082740 -0.440753 76 153 0
0.665889 0.231457 0.012455 127 127 0
-0.388222 -0.087852 -0.029859 153 76 0
0.378959 -0.180536 -0.218571 76 153 0
-0.418466 -0.115278 -0.054974 153 76 0
0.336954 -0.078886 -0.353920 76 0 153
0.463798 0.206254 0.189330 127 127 0
0.176382 0.098353 -0.410509 76 153 0
0.375101 0.265061 0.117193 0 255 0
0.069588 0.197810 -0.445793 76 153 0
-0.418466 -0.282598 -0.036063 127 0 127
-0.418466 -0.305542 -0.153450 153 76 0
0.705055 -0.153129 0.565689 153 0 76
-0.274702 0.265061 -0.236148 0 255 0
-0.430227 0.064342 0.447459 76 0 153
0.520003 0.206254 -0.309004 127 127 0
-0.094073 0.231457 -0.023571 0 255 0
-0.263741 -0.091198 -0.410509 76 153 0
0.205251 -0.166269 -0.440753 76 153 0
0.322996 -0.479788 0.373165 76 153 0
0.174573 0.165929 0.049160 0 127 127
0.456644 -0.278418 -0.445793 76 153 0
-0.141090 0.154168 -0.193584 0 127 127
0.522423 0.265061 0.199458 0 255 0
0.661544 0.114915 0.133877 0 127 127
-0.159205 0.265061 0.423660 0 255 0
0.700818 0.265061 0.118711 0 255 0
-0.689744 -0.261865 0.486719 0 0 255
0.509075 -0.275964 -0.182317 153 76 0
-0.192727 0.265061 -0.446082 0 255 0
-0.418466 -0.006954 -0.350934 204 51 127
0.744235 0.044324 0.157788 153 0 76
0.407671 -0.115169 0.064624 127 127 0
-0.564765 -0.196584 -0.410509 76 153 0
-0.428332 -0.192946 0.162440 255 0 0
-0.381665 0.086749 -0.410509 76 153 0
0.109948 -0.078422 -0.440753 76 153 0
-0.388222 0.064881 0.160603 153 76 0
0.504758 -0.275964 0.421265 153 76 0
0.603134 0.046467 -0.247635 76 0 153
-0.670407 -0.088998 0.471597 153 76 0
-0.345767 0.265061 0.105439 0 255 0
-0.302888 0.231457 -0.329378 0 255 0
0.098057 0.231457 0.239465 0 255 0
0.419253 0.197908 -0.445793 76 153 0
-0.597883 -0.270924 -0.008524 127 0 127
-0.174771 0.265061 0.300100 0 255 0
0.367197 -0.256479 -0.224938 153 76 0
-0.732759 0.265061 -0.281435 0 255 0
-0.073333 0.265061 0.136011 0 255 0
0.367197 0.124418 -0.145910 153 0 76
-0.417574 -0.326370 -0.196641 153 76 0
-0.707197 -0.244804 -0.324819 127 127 0
0.463130 0.116702 -0.410509 76 153 0
-0.453589 0.231457 0.284991 0 255 0
-0.486206 0.231457 -0.175412 0 255 0
-0.502228 -0.275964 0.075336 127 0 127
-0.821331 0.231457 0.039816 0 255 0
0.378959 -0.194424 0.279600 76 153 0
0.186692 0.154168 0.324689 0 127 127
0.676295 0.265061 -0.121015 0 255 0
-0.753498 -0.073768 -0.094935 76 0 153
-0.664366 -0.270924 -0.050573 127 0 127
-0.283980 0.231457 -0.165271 0 255 0
0.195858 0.154168 -0.125917 0 127 127
0.692647 0.265061 -0.181949 0 255 0
-0.185811 0.165929 0.407392 0 127 127
-0.458110 0.231457 -0.366906 0 255 0
-0.753498 0.162975 -0.242737 153 0 76
-0.595683 0.265061 -0.141862 0 255 0
0.084345 -0.155574 -0.440753 76 153 0
-0.388222 -0.174155 0.363779 153 76 0
0.745497 0.265061 0.051370 0 255 0
0.335084 0.034341 -0.440753 76 153 0
0.378959 0.071487 0.055622 153 0 76
0.488940 -0.115169 0.074618 127 127 0
0.713991 -0.045020 0.014636 255 0 0
0.414796 0.265061 0.143853 0 255 0
-0.347274 0.231457 -0.274835 0 255 0
0.367197 -0.318187 0.343274 76 0 153
-0.665945 0.214946 -0.445793 76 153 0
0.336954 0.032279 -0.207920 76 0 153
0.321322 -0.401783 0.372975 76 153 0
0.199394 0.032171 -0.440753 76 153 0
0.334941 0.265061 0.178869 0 255 0
-0.388222 -0.223035 0.285173 153 76 0
0.713991 -0.183927 0.167109 153 0 76
0.744235 -0.212068 0.338765 153 0 76
-0.032800 0.265061 -0.270782 0 255 0
0.424007 0.117592 -0.350022 153 76 0
-0.716363 -0.114665 0.099280 0 0 255
0.524528 -0.234617 0.216207 0 255 0
-0.395254 0.143054 0.419511 153 0 76
-0.618504 0.001166 -0.410509 76 153 0
0.357078 0.231457 0.047578 76 0 153
-0.811674 -0.444381 -0.456372 153 76 0
0.336954 -0.004259 -0.356683 76 0 153
0.220862 0.231457 -0.159998 0 255 0
-0.401077 0.265061 -0.222492 0 255 0
-0.713128 0.206254 -0.184179 0 255 0
0.378959 -0.062126 0.193818 76 0 153
-0.189247 0.265061 -0.276212 0 255 0
0.367197 0.067449 -0.112394 76 0 153
-0.738116 0.231457 0.321581 0 255 0
-0.579109 0.231457 -0.017582 0 255 0
0.142908 0.218026 0.175882 153 0 76
0.686201 -0.197543 -0.410509 76 153 0
0.611497 0.051759 0.283269 76 0 153
0.548671 -0.157526 0.543846 0 127 127
0.314111 0.265061 0.402054 0 255 0
-0.326500 0.265061 0.325276 0 255 0
-0.418466 -0.133849 0.095642 153 76 0
0.592284 -0.270924 0.033561 153 76 0
0.513839 0.051759 -0.072970 76 0 153
0.587825 0.265061 -0.251844 0 255 0
0.600113 0.071227 0.461516 76 153 0
-0.675712 0.027247 0.495120 153 76 0
0.336954 -0.130361 -0.340204 76 0 153
-0.765260 -0.125984 0.049105 76 0 153
-0.726013 0.265061 0.155433 0 255 0
0.715655 -0.533808 -0.423432 76 0 153
0.368388 0.206254 0.161077 76 0 153
0.744235 -0.077473 -0.050988 153 0 76
-0.585852 -0.270924 -0.179831 127 0 127
-0.574418 0.096807 -0.440753 76 153 0
0.248171 0.186092 0.391425 255 0 0
0.367197 -0.167575 0.101350 76 0 153
-0.717546 -0.272604 -0.445083 76 153 0
-0.569005 0.207342 0.420178 0 255 0
-0.581958 0.265061 -0.466172 0 255 0
-0.297126 -0.022982 -0.440753 76 153 0
-0.718419 -0.311249 0.406880 153 0 76
-0.700107 -0.270924 -0.093359 127 0 127
-0.591736 0.130325 0.471597 153 76 0
-0.013537 0.231457 0.115006 0 255 0
0.028598 -0.104277 -0.440753 76 153 0
-0.457577 0.231457 0.047311 0 255 0
0.205973 0.265061 -0.323723 0 255 0
0.429630 0.231457 -0.005433 0 255 0
-0.311441 0.241097 -0.474357 0 255 0
0.732328 -0.115204 0.372465 153 0 76
0.599380 -0.275964 0.312619 153 76 0
-0.595529 0.207172 -0.410509 0 255 0
-0.753498 0.135213 0.345675 76 0 153
-0.827121 0.231457 -0.375595 0 255 0
0.336954 -0.236920 -0.146313 76 0 153
0.578931 -0.157223 -0.267692 76 0 153
0.336954 -0.078351 0.308564 76 0 153
-0.792261 0.231457 -0.322778 0 255 0
-0.179278 0.144949 -0.410509 76 153 0
0.168192 -0.011280 -0.440753 76 153 0
-0.799547 0.177691 0.151390 76 0 153
0.604436 -0.247108 0.243090 204 51 127
-0.630020 -0.114665 0.021819 0 0 255
0.584406 -0.199237 0.543846 0 127 127
-0.516068 -0.114665 0.194298 0 0 255
-0.564002 -0.055746 0.471597 153 76 0
-0.487463 0.265061 -0.099521 0 255 0
-0.691285 0.206254 -0.078683 0 255 0
-0.133095 0.265061 0.012863 0 255 0
-0.207569 0.265061 0.396415 0 255 0
-0.273048 0.265061 -0.070670 0 255 0
-0.778919 -0.150306 -0.410509 76 0 153
-0.514161 -0.270924 -0.241912 127 0 127
-0.022413 0.265061 0.180469 0 255 0
-0.795503 0.069312 0.019217 76 0 153
0.626731 -0.270924 -0.232032 153 76 0
0.359152 -0.149222 0.372466 76 0 153
0.749275 0.198884 0.337100 153 0 76
0.205340 0.231457 -0.434713 0 255 0
0.279904 0.265061 -0.021049 0 255 0
0.748082 0.231457 -0.322263 153 0 76
-0.388222 0.076208 0.056143 153 76 0
0.491180 0.209534 0.429592 127 127 0
0.684815 0.231457 0.396014 0 255 0
-0.811370 -0.492969 -0.420026 153 76 0
-0.829107 0.247189 -0.425335 0 255 0
0.158743 0.265061 -0.030783 0 255 0
0.401268 0.206254 -0.216520 127 127 0
0.713991 -0.118511 -0.095557 127 127 0
0.713991 0.207002 0.199634 153 0 76
0.546648 -0.217626 0.583551 127 0 127
-0.437130 -0.041033 -0.339941 76 0 153
0.327060 0.149156 0.372465 76 0 153
0.649748 0.265061 0.323852 0 255 0
0.483950 0.231457 0.091546 0 255 0
0.267891 0.165929 0.354695 255 0 0
-0.052103 0.265061 0.017913 0 255 0
-0.144010 0.265061 -0.236387 0 255 0
0.547011 0.265061 0.273724 0 255 0
0.336954 -0.132466 0.216378 76 0 153
0.744235 0.088636 -0.164960 153 0 76
-0.318579 0.154168 0.420865 0 127 127
0.618342 -0.159274 0.543846 0 127 127
-0.564407 0.265061 -0.072949 0 255 0
-0.765260 -0.304969 -0.107360 76 0 153
-0.622091 -0.171215 -0.440753 76 153 0
0.465125 -0.275964 -0.108022 153 76 0
0.780527 0.235808 -0.286541 0 255 0
0.749275 -0.315547 0.213719 153 0 76
0.570603 -0.275964 -0.142736 153 76 0
0.336954 -0.087693 0.159052 76 0 153
-0.483042 0.098120 -0.339941 204 51 127
-0.488096 0.042872 -0.440753 76 153 0
0.319241 -0.309671 -0.445793 76 153 0
-0.388222 -0.177711 -0.379132 153 76 0
-0.181494 0.265061 0.014682 0 255 0
-0.388222 0.019641 0.305578 153 76 0
0.713991 -0.139789 -0.373421 153 0 76
-0.381628 -0.316544 -0.445793 76 153 0
-0.765260 -0.123329 0.130973 0 0 255
0.155157 0.150807 0.353773 0 127 127
0.702230 -0.179138 0.300962 153 0 76
-0.795503 0.087907 -0.075724 76 0 153
-0.765260 -0.435804 0.396459 76 0 153
0.575122 0.265061 -0.445160 0 255 0
0.015100 0.154168 -0.117337 0 127 127
-0.265678 0.154168 -0.197957 0 127 127
0.070050 0.231457 -0.089568 0 255 0
-0.291844 0.165929 -0.051353 0 127 127
-0.384237 0.231457 0.038305 153 76 0
-0.388222 -0.046169 -0.180606 153 76 0
-0.425186 -0.021673 0.146824 76 0 153
0.642491 0.231457 -0.073539 127 127 0
-0.388222 -0.037879 0.265034 153 76 0
0.713991 -0.186984 0.083626 153 0 76
-0.359770 0.231457 -0.455984 0 255 0
0.679970 -0.149949 0.408189 0 0 255
0.125212 0.064113 -0.440753 76 153 0
0.744235 0.067084 -0.225845 153 0 76
-0.418466 -0.167670 -0.342559 153 76 0
-0.764469 0.120371 0.493440 153 76 0
0.713991 -0.224790 0.148011 153 0 76
0.605291 0.231457 0.352349 0 255 0
-0.106914 -0.178311 -0.440753 76 153 0
0.659319 0.265061 -0.315628 0 255 0
-0.097034 0.154168 0.096954 0 127 127
0.367197 -0.116209 -0.313726 76 0 153
-0.797133 -0.272604 -0.075855 76 0 153
0.675525 -0.011028 -0.440753 76 153 0
0.285158 0.231457 0.507139 255 0 0
-0.795503 0.077690 0.168620 76 0 153
0.435612 0.206254 0.280733 127 127 0
0.367197 -0.389593 0.384884 76 153 0
0.367197 0.098137 -0.186739 153 0 76
0.780527 0.235639 -0.001000 0 255 0
0.633624 -0.153376 -0.440753 76 153 0
0.420657 0.039410 -0.342006 76 0 153
0.367197 0.123196 -0.383310 76 0 153
-0.022479 -0.006646 -0.410509 76 153 0
-0.489063 -0.114665 -0.148748 0 0 255
-0.419239 0.073476 0.493440 153 76 0
-0.418466 -0.219220 0.006925 255 0 0
-0.753498 -0.207233 0.083942 76 0 153
-0.064840 0.265061 0.383753 0 255 0
0.001426 0.197077 -0.297936 127 0 127
-0.600314 -0.225476 -0.410509 76 153 0
0.402928 0.231457 0.098778 0 255 0
-0.795503 -0.238288 -0.229124 76 0 153
0.591162 0.265061 -0.187196 0 255 0
-0.511667 -0.010050 -0.410509 76 153 0
-0.137425 0.230293 -0.286174 127 0 127
-0.459596 0.055237 -0.339941 204 51 127
0.713991 0.226811 0.273898 0 255 0
-0.313521 0.168771 -0.440753 76 153 0
0.582679 0.206254 0.141377 127 127 0
-0.077613 0.265061 -0.381876 0 255 0
0.397676 0.231457 -0.137777 0 255 0
-0.611551 0.231457 -0.353071 0 255 0
-0.388222 0.029415 -0.075763 153 76 0
-0.079595 0.265061 0.308956 0 255 0
0.746941 -0.315301 -0.410509 153 0 76
0.588978 0.054154 -0.410509 76 153 0
0.020844 0.265061 0.208580 0 255 0
0.681501 0.231457 -0.261561 127 127 0
0.638459 -0.115169 0.176141 127 127 0
0.702230 0.147542 -0.275971 76 0 153
0.766161 0.265061 0.158462 0 255 0
-0.800544 -0.324434 0.340001 76 0 153
-0.589846 -0.091441 -0.440753 76 153 0
-0.795503 -0.142289 0.366012 76 0 153
-0.430227 0.113697 -0.248258 76 0 153
-0.371420 0.047066 0.395553 153 0 76
-0.721799 0.265061 0.194940 0 255 0
-0.612303 0.265061 0.106009 0 255 0
0.130701 0.265061 -0.429096 0 255 0
-0.765260 0.206567 -0.004271 0 255 0
0.151012 -0.181494 -0.410509 76 153 0
-0.326182 0.231457 -0.102693 0 255 0
0.078968 0.231457 0.122182 0 255 0
-0.447437 0.137167 -0.339941 204 51 127
0.702230 0.077737 -0.035353 76 0 153
-0.759823 -0.109624 -0.241225 153 0 76
0.367197 0.055260 0.159533 76 153 0
-0.249880 0.231457 -0.296249 127 0 127
0.682803 0.231457 -0.198291 127 127 0
0.121763 0.265061 -0.163018 0 255 0
0.561533 0.231457 0.005693 0 255 0
0.271542 -0.250741 -0.410509 76 153 0
0.367197 -0.115936 0.199226 127 127 0
0.671058 -0.214173 0.216207 0 255 0
-0.546832 -0.037120 -0.339941 204 51 127
0.094205 0.265061 -0.096632 0 255 0
0.422469 -0.063441 0.064988 127 0 127
0.450258 0.206254 -0.194142 127 127 0
0.252138 0.231457 -0.216308 0 255 0
0.660890 -0.275964 -0.081542 153 76 0
0.028463 0.192147 0.498481 255 0 0
-0.383181 -0.293932 0.108442 153 76 0
-0.619027 0.055599 -0.410509 76 153 0
-0.071256 -0.050862 -0.440753 76 153 0
0.378959 -0.246408 -0.177491 76 0 153
0.297910 -0.005008 -0.440753 76 153 0
-0.372096 -0.079815 -0.410509 153 76 0
0.147067 0.231457 0.403001 0 255 0
-0.717750 0.186029 0.412790 0 255 0
0.160555 -0.041652 -0.410509 76 153 0
-0.388222 -0.001054 0.103005 153 76 0
-0.419978 -0.072407 -0.328179 76 0 153
0.744235 0.143936 0.059822 153 0 76
0.154415 -0.238681 -0.440753 76 153 0
0.749179 -0.496129 -0.456564 76 0 153
0.391680 -0.092113 -0.410509 0 255 0
-0.147430 0.231457 -0.414532 0 255 0
0.282469 0.186092 0.294263 255 0 0
-0.027949 0.145723 -0.410509 76 153 0
0.499816 0.265061 0.013571 0 255 0
0.089255 0.093786 -0.440753 76 153 0
0.369759 -0.033432 -0.410509 0 0 255
0.410305 0.265061 -0.051176 0 255 0
0.713991 -0.254298 0.405828 153 0 76
-0.444296 0.102577 -0.410509 76 153 0
0.713991 -0.027863 -0.134080 153 0 76
-0.415752 0.231457 0.303329 0 255 0
0.065033 0.066367 -0.410509 76 153 0
0.468346 -0.089083 0.091871 127 127 0
-0.765260 -0.026617 -0.249472 76 0 153
-0.418466 -0.187920 0.505871 0 0 255
0.744235 0.094544 -0.127136 153 0 76
-0.241057 0.231456 0.233489 0 255 0
-0.267052 0.134187 -0.440753 76 153 0
0.154705 0.165929 0.108502 0 127 127
0.373701 -0.121890 -0.275295 127 127 0
-0.795503 0.033081 -0.272672 76 0 153
-0.188074 0.265061 0.336123 0 255 0
-0.371420 0.184782 0.516938 255 0 0
-0.753498 -0.215871 -0.214881 0 255 0
0.139520 0.196031 -0.445793 76 153 0
-0.249700 -0.259780 -0.410509 76 153 0
-0.419984 -0.109624 -0.187318 76 0 153
-0.418466 -0.118955 0.462280 0 0 255
0.570079 -0.206095 0.216207 0 255 0
0.367197 0.202549 -0.359441 127 127 0
0.744235 0.082674 0.091592 153 0 76
0.756044 -0.201648 -0.410509 76 0 153
-0.708005 0.078051 -0.339941 204 51 127
-0.388222 0.075315 -0.145942 153 76 0
-0.418766 0.265061 0.348415 0 255 0
0.424292 0.231457 -0.377282 127 127 0
0.378959 0.142910 0.029873 76 0 153
-0.430227 0.055761 0.285212 153 76 0
0.431635 0.051759 0.389561 76 0 153
-0.331479 0.136956 0.518643 255 0 0
-0.432721 0.265061 0.268945 0 255 0
0.336954 0.065700 0.248317 76 0 153
0.780527 0.243923 0.301290 0 255 0
-0.745001 0.231457 -0.340573 0 255 0
0.520698 0.206254 0.146086 127 127 0
-0.430227 -0.050890 -0.076023 76 0 153
0.702230 -0.247569 -0.243901 76 0 153
-0.795503 -0.070664 0.187551 76 0 153
0.508961 -0.238767 -0.440753 76 153 0
0.525971 0.046467 0.053304 76 0 153
0.660044 0.051759 0.404177 76 0 153
-0.637940 -0.234395 0.159080 76 0 153
-0.710253 -0.087153 -0.410509 76 153 0
-0.734369 0.193254 -0.410509 76 153 0
-0.753498 -0.025542 -0.046508 153 0 76
0.267728 0.118918 -0.440753 76 153 0
0.345862 -0.506157 0.413660 76 153 0
-0.418466 0.174231 0.054844 76 0 153
0.516850 -0.110128 0.303967 127 127 0
0.367197 -0.034230 0.147096 0 0 255
0.336954 0.095453 0.320512 76 0 153
-0.795503 0.007334 0.226626 76 0 153
-0.762945 0.206254 0.263452 0 255 0
0.598707 0.206254 0.079481 127 127 0
0.336954 -0.246993 0.152973 76 0 153
0.085829 0.165929 0.138956 0 127 127
0.023710 0.166977 -0.410509 76 153 0
-0.239325 0.265061 0.069731 0 255 0
-0.418466 0.085904 0.153230 153 76 0
0.507302 0.265061 -0.131553 127 127 0
-0.383181 0.120614 -0.009612 153 76 0
0.662286 0.206254 -0.366643 127 127 0
-0.582843 -0.083271 -0.328179 204 51 127
0.367197 0.023764 -0.184065 76 0 153
-0.765260 -0.143314 -0.330962 76 0 153
0.210092 -0.293682 -0.405469 76 153 0
-0.765260 -0.314761 -0.022316 76 0 153
-0.574946 -0.319702 -0.445793 76 153 0
0.744235 -0.249372 -0.047035 153 0 76
-0.418466 -0.211753 -0.183288 153 76 0
0.713991 -0.278829 0.095827 153 76 0
-0.598904 0.179371 0.404983 153 76 0
-0.259682 -0.205958 -0.410509 76 153 0
0.579056 0.265061 0.035311 0 255 0
-0.753498 -0.282494 0.230541 127 0 127
0.713991 -0.084665 0.148543 153 0 76
-0.090243 -0.104306 -0.410509 76 153 0
0.723949 0.265061 -0.088134 0 255 0
-0.095729 0.150191 -0.410509 76 153 0
-0.727895 -0.109624 0.410841 0 0 255
0.545815 -0.275964 0.056527 153 76 0
0.443238 -0.149949 0.400782 0 0 255
0.713991 -0.130016 -0.452408 76 0 153
-0.168017 0.265061 -0.149378 0 255 0
-0.545390 -0.109624 0.427823 0 0 255
-0.539206 0.265061 -0.036714 0 255 0
0.702543 0.007486 -0.108473 255 0 0
-0.379731 -0.311619 0.372465 153 0 76
-0.773936 0.066226 0.419511 76 0 153
0.503494 -0.209430 0.543846 0 127 127
-0.706050 0.265061 -0.470782 0 255 0
0.207144 0.265061 -0.043382 0 255 0
0.615873 -0.218294 -0.267692 76 0 153
0.378959 -0.117746 0.301758 127 127 0
0.336954 -0.002846 -0.022102 76 0 153
-0.522092 -0.270924 0.324202 127 0 127
0.478461 0.231457 0.314568 0 255 0
-0.599316 -0.270924 0.298516 127 0 127
0.336954 -0.133636 0.111551 76 0 153
0.178566 0.259914 -0.474357 0 255 0
-0.570094 0.126327 -0.410509 76 153 0
0.646230 0.255665 0.436313 0 255 0
-0.169911 0.154168 -0.079458 0 127 127
-0.517135 0.265061 0.044832 0 255 0
0.286041 -0.199598 -0.410509 76 153 0
-0.016064 0.154168 0.191243 0 127 127
0.293629 0.172097 -0.440753 76 153 0
0.115864 0.187114 -0.286174 127 0 127
0.744235 0.010832 -0.129865 153 0 76
-0.430227 -0.231499 0.321887 255 0 0
-0.246237 0.165929 0.270685 0 127 127
-0.765260 -0.240658 -0.138860 76 0 153
0.744235 0.090694 -0.301124 153 0 76
0.744235 -0.034773 0.097198 153 0 76
-0.765260 -0.117932 0.454802 0 0 255
-0.502494 0.231457 -0.225370 0 255 0
0.078832 0.265061 -0.353834 0 255 0
0.416114 -0.270924 0.100366 153 76 0
0.713991 0.082035 -0.144599 153 0 76
0.367197 -0.120288 -0.113941 76 0 153
0.209579 0.154168 0.215791 255 0 0
-0.418466 -0.311234 -0.061394 153 76 0
0.360779 -0.048025 0.419511 76 153 0
0.367197 -0.020594 -0.184619 76 0 153
0.713991 0.070691 -0.376157 153 0 76
-0.800544 -0.314549 -0.332250 76 0 153
0.015753 0.231457 0.032918 0 255 0
-0.532722 0.231457 -0.083479 0 255 0
-0.765260 0.153293 -0.318353 76 0 153
-0.143087 0.231456 0.311511 0 255 0
0.119411 0.126867 -0.440753 76 153 0
0.207534 -0.256343 -0.410509 76 153 0
0.378959 -0.079644 -0.243361 0 0 255
-0.800544 0.190936 0.221432 76 0 153
-0.753498 0.125971 -0.287156 76 0 153
0.494734 -0.039077 0.411110 204 51 127
-0.795503 -0.073812 -0.343766 76 0 153
0.336954 0.083436 -0.383150 76 0 153
0.436744 -0.051695 0.411110 204 51 127
-0.765260 -0.248223 0.430771 0 255 0
-0.442699 0.265061 -0.366945 0 255 0
0.525925 -0.275964 0.217299 153 76 0
0.744235 -0.197254 -0.081390 153 0 76
-0.388222 0.004461 -0.201512 153 76 0
-0.151765 0.265061 -0.335211 0 255 0
-0.800544 0.186493 -0.130063 76 0 153
0.367197 -0.296440 -0.233319 76 0 153
0.679715 0.206254 0.130902 127 127 0
0.336954 0.070190 -0.322790 76 0 153
0.713991 -0.287722 -0.020758 153 76 0
-0.371420 0.198539 0.100061 127 127 0
0.673783 -0.110128 -0.031193 127 127 0
0.367197 -0.203589 -0.339701 76 0 153
-0.725429 0.206254 -0.008077 0 255 0
-0.418466 0.019222 0.249012 153 76 0
0.336954 -0.020828 -0.068795 76 0 153
0.367197 0.099933 -0.267784 153 0 76
-0.029748 0.104019 -0.410509 76 153 0
0.603860 0.038142 -0.440753 76 153 0
-0.418466 0.222645 -0.268277 0 255 0
-0.812305 0.033362 -0.424596 153 76 0
0.713991 -0.195923 0.449809 153 0 76
-0.311679 0.130645 0.382691 76 0 153
0.197049 0.117505 -0.440753 76 153 0
-0.430227 0.023794 0.446817 76 0 153
0.234870 0.231457 0.006994 0 255 0
0.347498 0.231457 -0.073560 0 255 0
0.744235 -0.095702 -0.317095 153 0 76
-0.800544 -0.304402 0.002549 76 0 153
-0.653065 0.265061 -0.079783 0 255 0
0.045900 0.231457 -0.444742 76 153 0
-0.476701 -0.027816 -0.410509 76 153 0
0.675289 -0.115169 0.195639 127 127 0
0.099451 -0.323238 -0.405469 76 153 0
0.130367 -0.162332 -0.440753 76 153 0
0.709006 0.205786 -0.445793 76 153 0
0.457590 0.046617 -0.410509 76 153 0
0.367541 0.205447 0.385907 76 153 0
0.761037 -0.197691 -0.450535 76 0 153
0.378959 -0.192653 -0.020969 76 153 0
0.603662 -0.115169 -0.020491 127 127 0
-0.352356 0.184248 -0.410509 76 153 0
-0.318086 0.104806 -0.410509 76 153 0
0.390506 0.231457 -0.414260 76 153 0
-0.371420 0.197418 -0.349225 153 76 0
-0.795503 0.078686 0.084656 76 0 153
0.744235 -0.133174 -0.320896 153 0 76
0.702230 0.094930 0.049365 153 0 76
-0.430227 0.113357 0.389677 153 0 76
-0.461446 0.200164 -0.445793 76 153 0
0.367197 -0.321041 -0.195739 76 0 153
0.320152 0.184899 -0.158422 76 0 153
-0.221747 0.231457 0.165385 0 255 0
0.744235 -0.062072 -0.301264 153 0 76
0.115457 0.032638 -0.410509 76 153 0
0.374938 0.079852 -0.410509 76 153 0
0.703878 0.007486 0.050430 153 0 76
-0.493232 0.231457 0.004999 0 255 0
0.663806 0.072911 -0.350022 153 76 0
0.589541 -0.110128 0.331782 127 127 0
0.367197 0.166955 -0.103345 76 0 153
-0.026849 0.231457 -0.388709 0 255 0
-0.203495 -0.149188 -0.410509 76 153 0
0.566142 -0.167573 -0.440753 76 153 0
-0.075077 0.265061 -0.195695 0 255 0
0.744235 0.144207 -0.207018 153 0 76
0.222953 0.231457 0.333802 0 255 0
-0.388222 0.046000 0.032865 153 76 0
-0.823637 0.231457 0.292963 0 255 0
-0.808068 0.265061 0.233033 0 255 0
-0.570930 -0.144877 0.412790 76 0 153
0.619318 -0.233712 0.543846 0 127 127
-0.499094 0.206254 -0.272823 0 255 0
-0.083434 0.231457 0.253167 0 255 0
-0.418466 0.192070 0.128616 153 76 0
-0.662912 -0.109624 0.037543 0 0 255
-0.430227 0.089544 -0.178030 76 0 153
0.533379 -0.222858 -0.255931 76 0 153
-0.013169 0.165929 0.321181 0 127 127
0.336954 -0.073874 -0.152264 76 0 153
0.598476 0.046467 0.245780 76 0 153
-0.765260 0.197696 -0.355141 76 0 153
0.336954 -0.221003 -0.113279 76 0 153
-0.039736 0.165929 0.069165 0 127 127
0.702230 -0.205184 0.527189 153 0 76
-0.252115 0.129252 0.518643 255 0 0
-0.765260 -0.120666 -0.112965 76 0 153
-0.661912 -0.246826 -0.313057 127 127 0
-0.104602 0.130645 0.352915 76 0 153
-0.795503 -0.092854 0.257034 76 0 153
-0.035426 0.231457 0.069301 0 255 0
0.428892 -0.115169 0.000648 127 127 0
0.560165 -0.089936 -0.410509 0 255 0
-0.348335 0.231457 -0.006975 153 76 0
0.754761 -0.510913 0.375830 153 0 76
-0.765260 -0.138658 -0.218261 76 0 153
0.463497 0.265061 -0.300278 0 255 0
-0.478186 -0.275964 -0.081118 127 0 127
-0.549285 0.206254 -0.042011 0 255 0
0.424155 0.265061 0.312556 0 255 0
0.627774 0.265061 0.365945 0 255 0
0.043091 0.265061 -0.098132 0 255 0
0.483208 0.265061 0.189460 0 255 0
0.516912 -0.322270 -0.445793 76 153 0
0.713991 -0.119695 0.338148 127 127 0
0.627512 -0.325436 -0.445793 76 153 0
-0.753498 -0.178965 0.465850 0 255 0
0.181748 0.172714 0.266009 255 0 0
0.780076 0.232686 -0.089961 0 255 0
-0.056528 0.231457 -0.158250 0 255 0
-0.644560 -0.115067 -0.410509 76 153 0
-0.795503 -0.111616 0.068970 76 0 153
-0.122412 0.265061 -0.077899 0 255 0
-0.418466 0.048476 0.387025 76 0 153
0.394330 0.206254 0.357472 127 127 0
0.778699 0.265061 -0.164872 0 255 0
0.284730 0.231457 0.294425 0 255 0
0.604626 -0.034466 0.091871 127 127 0
0.367197 0.086217 0.301568 76 0 153
-0.762373 0.265061 -0.214786 0 255 0
-0.423661 -0.284365 0.407001 153 0 76
-0.500903 -0.114665 0.322993 0 0 255
0.331913 0.120693 0.153066 76 0 153
0.336954 -0.090661 -0.260321 76 0 153
0.113356 0.174223 -0.410509 76 153 0
-0.733322 0.265061 -0.073964 0 255 0
0.614825 -0.110128 -0.200954 127 127 0
0.231583 0.265061 -0.113573 0 255 0
-0.217258 0.231457 -0.327998 0 255 0
-0.745987 0.265061 0.282893 0 255 0
0.702230 -0.024321 0.278223 255 0 0
0.208439 -0.127782 -0.440753 76 153 0
0.434755 0.175254 -0.339021 153 76 0
0.588380 0.006591 -0.410509 76 153 0
0.367197 0.185305 -0.177718 76 0 153
0.577943 0.231457 0.250806 127 127 0
-0.561668 -0.275964 0.262563 127 0 127
0.182479 -0.211155 -0.440753 76 153 0
-0.602616 0.265061 0.297923 0 255 0
-0.054580 0.265061 -0.239968 0 255 0
-0.795503 -0.222198 -0.316436 76 0 153
0.228262 0.231457 -0.070092 0 255 0
-0.402672 -0.125073 -0.440753 76 153 0
0.367197 -0.186516 0.536861 0 127 127
0.357920 0.129818 -0.440753 76 153 0
0.559359 -0.023146 0.389267 204 51 127
0.336954 0.052341 0.305453 76 0 153
-0.169199 0.166524 0.518643 255 0 0
-0.245958 0.154168 -0.080483 0 127 127
0.713991 0.136419 0.301296 76 0 153
0.396983 0.011350 0.390132 204 51 127
-0.461898 0.265061 -0.278948 0 255 0
0.415175 -0.275964 0.223803 153 76 0
0.713991 -0.165752 0.237169 153 0 76
-0.418466 0.011426 0.127665 153 76 0
-0.765260 -0.023363 0.259164 153 0 76
0.622997 0.005900 -0.440753 76 153 0
-0.795503 -0.019249 0.160726 76 0 153
-0.592803 0.265061 0.221639 0 255 0
0.713991 -0.284189 -0.308888 153 0 76
-0.418466 -0.090025 0.037205 153 76 0
0.587023 0.206254 -0.060607 127 127 0
0.714092 -0.375847 -0.455975 76 0 153
-0.829107 0.242192 -0.153890 0 255 0
-0.717023 -0.114665 -0.326396 0 0 255
-0.522579 -0.275964 -0.195586 127 0 127
-0.371420 0.155179 0.446920 127 127 0
0.367197 -0.044310 -0.303815 0 0 255
-0.753498 0.142525 0.457701 153 0 76
-0.090430 0.154168 0.491192 0 127 127
-0.658073 0.155988 -0.410509 76 153 0
0.412157 0.137186 0.133877 0 127 127
0.713991 -0.016680 0.116820 255 0 0
-0.707504 0.068494 0.493440 153 76 0
-0.701300 -0.109624 0.028803 0 0 255
0.604524 0.231457 -0.014565 127 127 0
0.378959 -0.087133 0.378834 0 0 255
-0.720246 -0.102600 0.493440 153 76 0
0.702230 0.143369 -0.083846 76 0 153
-0.409638 0.265061 -0.091852 0 255 0
0.399457 0.046467 0.038954 76 0 153
0.367197 -0.285975 -0.370729 76 0 153
-0.615304 0.265061 -0.204789 0 255 0
0.749275 0.178918 -0.109118 153 0 76
-0.025913 0.231457 0.430328 0 255 0
0.468973 0.265061 0.400253 0 255 0
0.356027 0.020093 -0.410509 76 0 153
-0.430227 -0.086312 0.157761 76 0 153
0.370425 0.077206 -0.350022 153 76 0
-0.112526 0.265061 0.337476 0 255 0
0.164733 0.231457 -0.391471 0 255 0
-0.795503 -0.191683 0.021111 76 0 153
0.287596 0.265061 0.187455 0 255 0
-0.560055 -0.070740 -0.410509 76 153 0
-0.342248 0.154168 0.290282 0 127 127
0.093732 0.231457 0.084986 0 255 0
0.027179 0.165929 0.044558 0 127 127
0.152873 -0.127032 -0.440753 76 153 0
-0.386552 0.231457 -0.014941 153 76 0
0.418167 -0.285411 -0.405469 76 153 0
0.531102 0.265061 0.116099 0 255 0
0.744235 -0.174038 0.143426 153 0 76
-0.388222 -0.219964 -0.056181 153 76 0
-0.795503 0.009498 0.073803 76 0 153
-0.781916 -0.233630 0.372466 76 0 153
0.483573 -0.282685 -0.266240 153 76 0
0.713991 -0.247729 -0.418305 76 0 153
0.065335 0.265061 0.095830 0 255 0
-0.692789 0.173695 -0.410509 76 153 0
-0.722643 0.231457 -0.247342 0 255 0
-0.109871 0.154168 -0.125932 0 127 127
0.702230 0.171939 0.148585 76 0 153
-0.468105 0.265061 -0.010854 0 255 0
-0.062773 0.165929 0.008794 0 127 127
0.413744 -0.115169 -0.197543 127 127 0
0.744235 0.079683 -0.408130 76 0 153
-0.122878 0.265061 0.208662 0 255 0
0.038733 0.265061 -0.139900 0 255 0
0.749275 -0.291727 -0.382948 153 0 76
-0.388222 0.047826 -0.370588 153 76 0
0.307740 0.231457 -0.114667 0 255 0
-0.795503 0.135983 0.220801 76 0 153
0.252757 -0.127475 -0.410509 76 153 0
0.038556 0.154168 0.232821 0 127 127
-0.597093 -0.136172 -0.440753 76 153 0
-0.778457 -0.291151 0.372465 76 0 153
0.744235 0.141811 -0.342528 153 0 76
-0.005960 0.165929 0.232624 0 127 127
-0.452931 -0.141950 -0.440753 76 153 0
-0.756126 0.176111 0.331511 76 0 153
-0.567531 0.265061 -0.111518 0 255 0
0.243146 0.265061 0.106888 0 255 0
0.336954 -0.180048 0.062179 76 0 153
0.336954 0.019347 0.042749 76 0 153
0.749275 0.196057 0.232502 153 0 76
0.261945 0.231457 -0.133895 0 255 0
-0.383181 -0.321859 -0.341692 153 76 0
0.086161 0.154168 -0.031422 0 127 127
0.407084 0.206560 0.422236 127 127 0
0.617311 -0.123066 0.411349 0 0 255
0.183356 0.265061 0.404520 0 255 0
0.378959 0.139830 0.077230 153 0 76
0.519786 0.206254 -0.172647 127 127 0
0.625839 -0.110128 -0.420198 127 127 0
-0.809405 0.188776 -0.457555 153 76 0
-0.182812 -0.015640 -0.440753 76 153 0
0.625517 0.231457 0.187468 0 255 0
-0.415622 0.231457 0.007719 153 76 0
-0.283885 0.231457 -0.034067 0 255 0
0.687283 0.231457 0.197521 0 255 0
-0.009368 0.165929 0.441722 0 127 127
-0.388222 -0.118604 -0.281896 153 76 0
0.336954 -0.189455 -0.251638 76 0 153
-0.800544 0.198550 -0.068559 76 0 153
0.367197 -0.304660 -0.042571 76 0 153
0.336954 -0.236921 -0.249024 76 0 153
0.332560 -0.227835 -0.440753 76 153 0
-0.518789 -0.114665 0.007437 0 0 255
0.760409 0.231457 -0.362171 0 255 0
-0.388222 -0.093454 0.144937 153 76 0
-0.250973 0.154168 -0.151031 0 127 127
-0.795503 0.105432 -0.015540 76 0 153
-0.673984 0.265061 -0.002862 0 255 0
-0.522698 -0.109624 -0.253971 0 0 255
-0.639679 -0.114665 0.155494 0 0 255
0.780527 0.233865 -0.227312 0 255 0
-0.765260 -0.116690 0.385499 0 0 255
-0.430227 -0.154068 0.416721 76 0 153
0.174380 0.206312 0.498481 255 0 0
-0.087798 -0.270984 -0.410509 76 153 0
-0.812305 -0.111531 0.410513 76 0 153
-0.418466 -0.163311 0.347366 153 76 0
0.133843 0.265061 0.229620 0 255 0
-0.765260 0.077613 0.112395 153 0 76
-0.636304 0.231457 0.039324 0 255 0
-0.499434 -0.109624 0.252479 0 0 255
-0.162595 0.231457 0.028714 0 255 0
-0.430227 0.016584 0.034907 76 0 153
0.315813 0.265061 0.252177 0 255 0
-0.487426 0.231457 0.257331 0 255 0
-0.551403 -0.270924 0.197591 153 76 0
0.589095 -0.323294 -0.445793 76 153 0
0.378334 0.007486 -0.120257 0 0 255
-0.795503 -0.097910 -0.308326 76 0 153
-0.781844 0.265061 -0.132128 0 255 0
-0.795503 -0.166343 -0.172099 76 0 153
-0.800544 -0.301077 0.201554 76 0 153
0.583860 -0.270829 -0.410509 76 153 0
-0.388222 0.044449 -0.263362 153 76 0
-0.082113 0.199870 0.164120 153 0 76
0.253477 0.134279 -0.410509 76 153 0
0.364361 -0.323678 -0.410509 76 0 153
0.377474 0.265061 -0.109391 0 255 0
-0.800544 -0.296370 -0.215738 76 0 153
0.531657 0.083560 -0.350022 153 76 0
-0.329379 0.265061 0.052598 0 255 0
-0.241109 -0.193422 -0.440753 76 153 0
-0.721593 0.231457 0.050381 0 255 0
0.417373 -0.270924 0.474618 153 76 0
-0.430227 0.028210 0.214897 76 0 153
0.637155 0.147027 0.162901 76 153 0
0.018615 0.231457 0.268709 0 255 0
-0.765260 -0.252060 0.004330 0 255 0
-0.690472 -0.168787 -0.324819 127 127 0
0.264515 0.186092 0.457380 255 0 0
-0.441891 -0.071781 -0.410509 76 153 0
0.243558 0.231457 0.219328 0 255 0
0.454273 -0.115169 -0.314711 127 127 0
0.040405 0.150807 -0.297624 127 0 127
0.185073 0.165929 -0.262870 0 127 127
-0.474174 -0.114665 0.067453 0 0 255
-0.765260 -0.190640 0.155915 76 0 153
-0.418466 -0.028873 0.041431 153 76 0
-0.264688 0.265061 -0.438537 0 255 0
-0.762674 -0.153309 -0.050480 76 0 153
-0.740132 0.113144 -0.410509 76 153 0
-0.371420 0.188058 0.165330 127 127 0
-0.664286 -0.114665 -0.039080 0 0 255
0.672283 -0.192193 -0.255931 76 0 153
-0.649761 0.035898 -0.440753 76 153 0
-0.632979 0.231457 0.224586 0 255 0
0.529252 -0.282685 -0.263889 153 76 0
-0.795503 0.122680 -0.345764 76 0 153
0.557867 -0.019708 0.091871 127 127 0
0.276071 0.231457 0.080165 0 255 0
0.489509 0.265061 0.130984 0 255 0
-0.471430 0.231457 -0.462163 76 153 0
0.404158 0.013946 -0.440753 76 153 0
0.339590 0.231457 0.333605 76 0 153
-0.388222 -0.110512 -0.322934 153 76 0
-0.765260 -0.236528 -0.085222 0 255 0
-0.657839 -0.114665 0.082654 0 0 255
-0.795503 -0.231537 0.173219 76 0 153
0.143020 0.231457 0.040254 0 255 0
0.749275 0.206038 0.153023 153 0 76
0.713991 0.033185 -0.168897 153 0 76
0.336954 0.073200 0.166739 76 0 153
0.547566 -0.219860 0.243090 204 51 127
0.303178 -0.141509 -0.440753 76 153 0
0.713991 0.067067 0.450978 76 153 0
0.020915 0.165929 0.362316 0 127 127
-0.388222 -0.153671 -0.410133 153 76 0
0.101256 0.265061 -0.461999 0 255 0
0.367197 0.139759 -0.335520 153 76 0
0.682895 -0.115169 -0.170880 127 127 0
-0.391589 0.070210 -0.440753 76 153 0
-0.418466 0.076876 -0.215040 76 0 153
0.053516 0.006779 -0.440753 76 153 0
0.025619 0.231457 -0.061986 0 255 0
0.241002 0.154168 0.188500 0 127 127
0.744235 -0.002501 0.357766 153 0 76
-0.388222 -0.216139 0.193470 153 76 0
-0.101144 0.231457 -0.116481 0 255 0
0.713991 0.124908 -0.228953 76 0 153
0.409897 -0.104424 0.389267 204 51 127
0.279135 0.165929 -0.208847 0 127 127
-0.430227 -0.190116 0.041279 153 76 0
0.468854 -0.115169 -0.239762 127 127 0
-0.667024 -0.114665 0.386496 0 0 255
-0.663228 -0.104134 -0.440753 76 153 0
0.433712 0.206254 -0.048268 127 127 0
0.340909 -0.326370 0.052481 76 0 153
-0.430227 -0.182742 -0.160146 255 0 0
0.702230 -0.238551 0.345394 153 0 76
-0.795503 -0.025171 0.297069 76 0 153
0.479573 -0.111800 0.411110 204 51 127
-0.312550 0.165929 0.237845 0 127 127
-0.753498 0.105313 0.194010 153 0 76
-0.166259 0.130645 0.366331 76 0 153
0.563334 0.265061 0.346949 0 255 0
