ply
format ascii 1.0
element vertex 1262
property float x
property float y
property float z
property uchar red
property uchar green
property uchar blue
end_header
0.023244 -0.080874 -0.178724 153 76 0
-0.317376 -0.047318 -0.434717 204 51 127
0.116586 0.357697 0.416548 76 0 153
-0.305941 0.387505 0.133500 76 0 153
-0.526337 0.467357 -0.198512 76 0 153
-0.609916 -0.321721 -0.204617 204 51 127
0.325919 0.467357 -0.328369 76 0 153
-0.435094 0.387505 -0.247189 76 0 153
0.258809 0.178807 -0.453059 204 51 127
0.120454 -0.450470 0.213418 0 127 127
0.559611 0.387505 -0.129845 76 0 153
-0.622239 0.433538 0.182087 76 0 153
0.277173 -0.363378 -0.447663 204 51 127
-0.399718 -0.071629 0.325482 153 76 0
-0.103643 -0.393671 -0.028488 76 0 153
-0.049263 0.196012 0.169485 255 0 0
-0.087669 -0.450470 -0.147949 0 127 127
-0.406893 -0.560401 0.332470 153 76 0
0.249144 -0.241026 -0.455709 204 51 127
0.644607 -0.025368 -0.102977 204 51 127
-0.171115 0.430132 0.450568 76 0 153
0.314946 0.387505 0.189783 76 0 153
0.276903 0.391734 -0.432482 76 0 153
0.069206 -0.377665 -0.138344 76 0 153
0.055294 0.387505 -0.185452 76 0 153
-0.037263 0.467357 0.350122 76 0 153
-0.134749 0.196012 0.067823 255 0 0
-0.580097 0.295643 -0.247555 204 51 127
-0.183782 -0.450470 -0.437703 0 127 127
-0.432120 0.217980 0.351574 127 0 127
0.443558 0.387505 -0.099244 76 0 153
0.519929 -0.327543 -0.305211 204 51 127
-0.020533 -0.130183 -0.492070 204 51 127
0.049887 0.467357 -0.005674 76 0 153
0.262645 0.138041 0.414958 0 0 255
0.488354 0.387505 0.159236 76 0 153
-0.338377 -0.323823 -0.426343 204 51 127
-0.500779 0.073404 0.293488 127 0 127
0.038403 -0.171050 0.451661 76 153 0
0.419683 -0.433726 -0.347349 153 0 76
-0.454347 0.299191 0.337551 153 76 0
-0.405035 -0.217406 0.368664 153 76 0
-0.247567 0.387505 -0.345342 76 0 153
0.593162 -0.450470 0.019698 0 127 127
0.404182 -0.478056 -0.405058 153 0 76
-0.278436 -0.393671 0.249012 76 0 153
-0.522223 0.467357 0.110600 76 0 153
-0.300096 -0.092284 -0.441608 204 51 127
0.117147 -0.393671 -0.029686 76 0 153
-0.056691 -0.407181 -0.490159 204 51 127
0.443481 -0.505989 -0.382665 153 0 76
-0.356305 0.283883 -0.153379 153 76 0
-0.511277 0.372917 -0.320818 204 51 127
0.285229 -0.011208 0.376892 76 153 0
0.276848 -0.450470 -0.373189 0 127 127
-0.217440 0.032850 -0.466526 204 51 127
0.669407 0.439381 0.085031 76 0 153
-0.602462 -0.450470 0.075580 127 0 127
-0.413663 -0.052405 -0.347199 76 153 0
0.483269 -0.591229 -0.363609 153 0 76
-0.596910 -0.450470 0.172898 204 51 127
0.095604 0.387505 -0.414151 76 0 153
0.079284 -0.340796 -0.178724 153 76 0
-0.356305 0.284914 -0.038478 153 76 0
-0.126407 -0.154643 0.416213 76 153 0
-0.295193 0.298359 0.404508 76 0 153
0.508362 0.352295 0.279175 127 127 0
0.263240 0.387505 0.384837 76 0 153
0.164316 -0.175444 0.437380 76 153 0
0.185261 -0.370560 -0.162563 153 76 0
0.257622 -0.300996 -0.453385 204 51 127
-0.229732 -0.393671 -0.160510 76 0 153
-0.356305 -0.229012 -0.042215 76 0 153
0.248714 0.467357 -0.207040 76 0 153
0.607630 -0.391295 -0.194348 204 51 127
0.260653 0.225691 0.384995 76 0 153
-0.451176 -0.684427 -0.402556 76 153 0
-0.374075 0.467357 -0.257206 76 0 153
0.460390 0.091936 0.290383 127 127 0
-0.344606 0.196012 0.054442 255 0 0
0.603583 -0.107895 -0.201970 204 51 127
-0.444250 0.279464 0.297384 153 76 0
-0.442070 0.437733 -0.403309 76 0 153
0.401952 -0.450470 0.053999 0 127 127
0.631001 -0.056527 0.109654 127 127 0
-0.306348 -0.450470 0.207562 0 127 127
0.207758 -0.450470 0.330601 0 127 127
-0.019575 -0.352654 -0.492120 204 51 127
0.438790 -0.049546 0.350550 76 0 153
-0.007852 0.467357 0.396874 76 0 153
-0.186787 0.445020 -0.515204 76 0 153
0.332404 -0.223926 0.177741 153 0 76
0.348566 -0.310007 0.214150 153 0 76
0.161952 0.467357 -0.205369 76 0 153
-0.394152 0.057499 0.375531 153 76 0
0.559026 0.346477 0.227774 127 127 0
-0.586427 0.353303 0.202306 127 0 127
-0.042670 -0.080625 -0.178724 153 76 0
0.493992 -0.450470 0.136449 0 127 127
-0.136026 0.387505 -0.074647 76 0 153
0.638918 -0.146919 0.084212 127 127 0
-0.234485 0.387505 0.230906 76 0 153
-0.256376 -0.107690 -0.178724 153 76 0
0.230300 -0.316378 -0.178724 153 76 0
0.219986 0.387505 -0.424741 76 0 153
-0.300688 -0.393671 0.202864 76 0 153
-0.027545 -0.450470 0.435717 0 127 127
-0.215995 0.212018 0.049476 255 0 0
0.406512 0.467357 0.208845 76 0 153
0.106326 0.128799 0.418197 76 153 0
-0.234948 0.467357 0.390637 76 0 153
0.608650 -0.188233 -0.192427 204 51 127
0.398205 -0.450470 -0.125093 0 127 127
-0.649601 -0.223353 -0.111796 127 0 127
0.267564 -0.351536 -0.162563 153 76 0
-0.050575 0.467357 -0.415585 76 0 153
0.137720 -0.377665 0.157495 76 0 153
-0.356305 -0.248481 0.095465 76 0 153
-0.365015 0.387505 -0.196055 76 0 153
0.494860 0.040776 0.292031 127 127 0
0.300062 0.208268 -0.178724 0 0 255
0.210098 0.262957 0.398858 76 0 153
-0.241041 -0.261876 0.420999 76 153 0
-0.418528 0.077303 0.313613 153 76 0
0.420164 -0.675036 -0.423152 153 0 76
0.034119 -0.372835 0.451888 76 153 0
-0.338125 0.387505 -0.048490 76 0 153
0.550013 -0.064594 -0.276499 204 51 127
-0.447166 -0.450470 0.197041 0 127 127
-0.586504 0.210188 0.202207 127 0 127
-0.415179 -0.452446 -0.347543 0 127 127
0.059466 -0.450470 -0.380530 0 127 127
0.651609 0.257145 -0.063929 204 51 127
-0.011773 -0.393671 -0.141180 76 0 153
0.082493 0.332301 0.449332 76 0 153
-0.012247 -0.444937 -0.492507 204 51 127
0.220807 -0.237052 -0.178724 153 76 0
-0.258413 -0.377665 0.358426 76 0 153
-0.356305 0.027573 0.269790 76 0 153
0.096847 0.467357 -0.142959 76 0 153
-0.340143 -0.185916 0.227169 76 0 153
0.332404 0.239895 0.022600 153 0 76
0.332404 -0.071562 0.237816 153 0 76
-0.348814 0.221411 0.383125 76 0 153
0.120295 0.387505 0.191529 76 0 153
0.478371 0.108420 -0.356092 153 0 76
-0.011035 -0.275814 -0.178724 153 76 0
-0.445101 -0.775293 0.365142 153 76 0
-0.161204 0.030743 0.439124 76 153 0
0.312824 0.113114 0.365888 76 153 0
0.554018 0.387505 -0.219035 76 0 153
-0.189631 -0.450470 -0.365984 0 127 127
0.426560 -0.450470 0.186832 0 127 127
-0.258420 0.467357 0.009587 76 0 153
0.440520 -0.635371 -0.402257 153 0 76
-0.372824 -0.204181 -0.373701 76 153 0
-0.140334 0.387505 -0.300026 76 0 153
-0.633130 0.183046 0.123844 127 0 127
0.334531 0.333934 0.385735 76 0 153
0.592932 0.289135 -0.220908 204 51 127
-0.221445 -0.138270 0.397869 76 153 0
-0.389870 0.016637 0.331695 153 76 0
0.578569 0.423935 -0.239511 76 0 153
-0.271158 -0.450470 -0.058622 0 127 127
0.503205 0.195379 -0.321134 204 51 127
-0.170962 0.359951 -0.164344 0 0 255
-0.094621 -0.086870 0.449100 76 153 0
0.376738 0.467357 0.380692 76 0 153
-0.325959 -0.177208 -0.431294 204 51 127
-0.004917 -0.393671 0.052328 76 0 153
0.205677 -0.450470 -0.187547 0 127 127
0.654366 -0.153284 -0.036966 127 127 0
0.374406 0.467357 -0.327106 76 0 153
0.508904 0.467357 0.002233 76 0 153
-0.263171 0.358323 -0.453985 204 51 127
-0.341462 0.467357 0.251162 76 0 153
-0.498619 -0.450470 -0.165390 0 127 127
-0.381154 0.467357 -0.059564 76 0 153
0.097768 -0.070955 0.448076 76 153 0
0.117674 -0.372296 0.444877 76 153 0
-0.136433 0.387505 0.126440 76 0 153
-0.408832 -0.739305 -0.405860 76 153 0
0.051486 -0.450470 0.055444 0 127 127
0.310710 -0.124596 0.366731 76 153 0
0.106444 -0.450470 -0.125690 0 127 127
-0.034015 -0.393671 0.416478 76 0 153
0.332404 0.306254 -0.032596 153 0 76
0.444263 0.370431 0.347096 127 127 0
-0.280392 0.095106 0.381704 76 153 0
-0.386817 -0.600793 -0.382384 76 153 0
0.346764 0.196012 0.202158 255 0 0
0.624857 0.000134 0.124850 127 127 0
-0.434206 0.380025 -0.334237 76 153 0
-0.523176 -0.299682 0.272438 127 0 127
-0.062118 -0.373530 0.450817 76 153 0
-0.460665 0.387505 0.264920 127 0 127
-0.340143 -0.355033 0.108580 76 0 153
-0.535567 -0.004051 -0.297689 204 51 127
0.464974 0.202061 -0.364545 153 0 76
-0.148933 0.309130 -0.162562 0 0 255
0.115028 -0.305468 -0.484357 204 51 127
-0.340143 -0.132261 -0.083047 76 0 153
0.303943 -0.393671 0.269876 76 0 153
0.158559 0.467357 0.162905 76 0 153
-0.614313 -0.117937 -0.196336 204 51 127
0.090375 -0.139183 0.420412 76 153 0
-0.219395 -0.111396 -0.465990 204 51 127
-0.221163 -0.402439 -0.465505 204 51 127
-0.174208 0.196012 0.013046 255 0 0
0.101888 -0.411894 0.447414 76 153 0
-0.100675 0.387505 -0.364617 76 0 153
0.045107 0.059150 -0.490363 204 51 127
0.129984 0.084996 0.442898 76 153 0
-0.421819 -0.482228 0.313973 153 76 0
-0.448108 -0.107629 -0.372003 76 153 0
0.434380 0.163879 -0.383848 153 0 76
-0.340143 0.231542 0.290729 204 51 127
0.341490 0.359949 0.024851 153 0 76
-0.355809 -0.357267 -0.178724 76 0 153
-0.017016 -0.310795 0.424697 76 153 0
-0.422939 -0.147523 -0.341346 76 153 0
0.383314 -0.226664 0.364280 76 0 153
-0.088456 -0.415590 0.420923 76 153 0
-0.136165 -0.377665 0.331902 76 0 153
0.117427 0.467357 0.235772 76 0 153
0.402554 -0.481074 0.329187 76 0 153
-0.398196 0.467357 0.000753 76 0 153
0.409173 -0.563745 -0.365288 153 0 76
-0.123422 0.467357 -0.283534 76 0 153
0.025553 0.347720 -0.162562 0 0 255
0.365016 -0.450470 -0.369687 0 127 127
-0.032931 0.071895 -0.491415 204 51 127
0.116453 0.257373 0.416569 76 0 153
-0.613590 -0.402710 -0.197698 204 51 127
0.010020 0.387505 -0.168086 76 0 153
-0.414102 0.467357 -0.199824 76 0 153
0.150628 0.286484 -0.478635 204 51 127
0.464426 -0.774640 -0.422872 153 0 76
0.310387 0.302854 -0.162562 0 0 255
-0.356305 0.346800 -0.078462 204 51 127
0.476489 -0.381684 0.315094 76 0 153
0.002837 0.387505 0.166904 76 0 153
0.654924 0.199382 -0.031515 127 127 0
0.211819 0.387505 0.076738 76 0 153
0.580096 -0.225830 0.200482 127 127 0
0.308917 -0.377665 -0.122479 76 0 153
-0.305357 0.212018 0.128834 255 0 0
-0.278852 0.155258 -0.449685 204 51 127
-0.461864 -0.642549 -0.344094 76 153 0
-0.085172 -0.377665 0.365570 76 0 153
0.379808 0.267546 0.341227 76 0 153
-0.033010 0.017430 -0.491410 204 51 127
0.641590 -0.346430 0.075621 127 127 0
0.398034 0.183618 -0.405659 153 0 76
-0.058643 -0.026611 -0.490056 204 51 127
0.439976 0.467357 -0.367173 76 0 153
-0.629973 -0.450470 -0.164873 204 51 127
-0.121193 -0.090393 0.417051 76 153 0
0.160915 -0.393671 0.403891 76 153 0
-0.340143 0.326423 0.259736 153 76 0
-0.359394 -0.144029 0.378906 76 153 0
0.423629 -0.450470 -0.089570 0 127 127
0.281744 -0.287207 0.378282 76 153 0
0.094666 -0.197234 -0.178724 153 76 0
0.389184 0.387505 0.242393 76 0 153
0.280651 -0.270640 -0.178724 153 76 0
0.071477 -0.377665 0.405115 76 0 153
0.587279 0.228404 -0.228229 204 51 127
0.143846 0.387505 0.036748 76 0 153
0.290108 0.196012 0.149000 255 0 0
-0.117108 0.467357 0.323892 76 0 153
-0.315263 0.212018 -0.132224 255 0 0
0.255112 -0.393671 0.053366 76 0 153
0.555507 -0.405000 -0.269383 204 51 127
0.143427 -0.450470 0.176183 0 127 127
-0.291495 0.387505 -0.071281 76 0 153
0.075657 -0.143609 -0.178724 153 76 0
-0.144013 -0.266546 0.413384 76 153 0
0.027308 0.035389 0.423744 76 153 0
-0.086734 -0.283243 0.449517 76 153 0
0.390867 0.362200 -0.364766 153 0 76
0.633237 0.227041 -0.139519 204 51 127
0.514156 -0.418609 0.273658 127 127 0
0.398662 -0.360246 0.375868 76 0 153
-0.063895 0.387505 -0.326283 76 0 153
-0.104606 0.467357 0.391947 76 0 153
0.485686 0.269289 0.298773 127 127 0
-0.211062 0.430187 -0.479683 76 0 153
0.495983 0.257706 -0.328011 204 51 127
0.368516 -0.134186 -0.409357 204 51 127
0.505984 -0.193724 0.281439 127 127 0
-0.190543 -0.303573 0.434408 76 153 0
-0.545344 -0.194927 0.251330 127 0 127
-0.232049 -0.393671 0.185389 76 0 153
-0.039367 -0.136195 -0.162563 153 76 0
-0.328233 0.265544 -0.430388 204 51 127
-0.389944 0.313025 0.331648 153 76 0
-0.392592 0.467357 0.154853 76 0 153
0.245109 -0.450470 -0.419787 0 127 127
0.270145 0.467357 0.062074 76 0 153
-0.112532 -0.353222 -0.486002 204 51 127
-0.347245 -0.450470 0.340444 0 127 127
0.380350 -0.095066 -0.377632 153 0 76
-0.544750 -0.267934 0.251895 127 0 127
-0.055951 0.268507 0.451143 76 0 153
-0.622773 -0.240018 -0.180401 204 51 127
-0.129126 -0.450470 -0.434743 0 127 127
-0.139949 0.467357 0.118018 76 0 153
-0.430603 0.177844 -0.383048 204 51 127
0.163499 0.467357 0.249130 76 0 153
-0.261639 0.387505 0.072164 76 0 153
0.170041 -0.450470 -0.071536 0 127 127
0.665842 0.431445 0.020524 76 0 153
0.347508 0.152045 -0.419615 204 51 127
-0.540416 0.375321 0.256022 76 0 153
0.539443 0.262711 -0.286629 204 51 127
0.606634 0.130347 0.159173 127 127 0
0.204134 0.467357 -0.152343 76 0 153
0.652784 -0.413522 0.015381 127 127 0
-0.292065 -0.450470 -0.284674 0 127 127
0.587361 -0.290651 0.191072 127 127 0
0.490015 0.387505 -0.068643 76 0 153
-0.354627 0.028155 -0.166643 153 76 0
0.039599 -0.403075 -0.490654 204 51 127
0.031755 0.212018 0.055676 255 0 0
0.517145 -0.450470 0.202741 204 51 127
-0.275341 -0.445437 -0.450648 0 127 127
0.029839 0.467357 -0.311345 76 0 153
-0.035756 0.044680 0.423707 76 153 0
-0.356305 -0.211443 0.282411 76 0 153
0.169067 -0.377665 0.344752 76 0 153
-0.400970 0.467357 0.293040 76 0 153
-0.234936 0.212018 -0.104394 255 0 0
0.350029 0.024512 0.379555 76 153 0
-0.356305 0.205808 -0.151270 0 0 255
0.428029 0.060786 -0.387855 204 51 127
-0.638620 -0.201928 0.110037 127 0 127
0.300323 -0.450470 0.360015 0 127 127
0.476390 -0.268341 0.326826 76 0 153
0.492086 -0.341816 0.294173 127 127 0
0.420806 -0.450470 0.094537 0 127 127
-0.537771 0.318074 0.258541 127 0 127
-0.117831 0.387505 0.252219 76 0 153
0.178300 -0.203600 0.406629 76 153 0
0.163411 0.387505 0.287933 76 0 153
-0.020633 -0.393671 0.156528 76 0 153
-0.039701 -0.450470 0.148240 0 127 127
0.304471 0.206226 -0.436777 204 51 127
0.116973 -0.450470 -0.384296 0 127 127
0.290316 -0.066166 -0.162562 153 76 0
0.346493 0.284092 -0.178724 0 0 255
0.141439 0.128316 -0.480112 204 51 127
0.217438 -0.377665 0.148834 76 0 153
-0.111535 0.226657 0.418604 76 0 153
-0.453918 0.099558 0.337821 127 0 127
0.348566 -0.390927 0.145765 76 0 153
-0.057247 0.433938 -0.508646 76 0 153
-0.379390 -0.093950 0.353590 127 0 127
0.348566 -0.249500 -0.140226 153 0 76
0.455421 0.271728 -0.324035 153 0 76
0.537737 0.387505 0.085835 76 0 153
-0.180408 0.264860 0.436037 76 0 153
-0.278946 -0.393671 -0.001526 76 0 153
0.204155 0.438575 -0.496820 76 0 153
-0.622978 0.313380 -0.180015 204 51 127
-0.524641 0.234335 -0.308092 204 51 127
-0.384656 -0.470851 -0.367328 76 153 0
-0.340143 0.335969 0.149979 204 51 127
0.348566 -0.107340 0.340221 76 153 0
-0.262603 0.387505 -0.412398 76 0 153
0.403679 -0.213964 -0.356682 153 0 76
-0.356305 -0.165842 -0.063556 76 0 153
0.392558 0.387505 -0.169657 76 0 153
0.318329 -0.450470 0.294987 0 127 127
-0.644017 0.377492 -0.129741 127 0 127
0.076258 -0.220873 -0.488717 204 51 127
0.432538 0.053103 0.354494 76 0 153
-0.661012 0.256389 -0.047646 127 0 127
0.479209 -0.122005 0.325047 76 0 153
0.543727 0.441161 -0.327993 76 0 153
-0.356305 0.326876 0.086399 204 51 127
-0.449326 -0.047641 -0.324698 76 153 0
-0.309340 0.225924 0.370363 255 0 0
-0.218225 -0.450470 -0.058598 0 127 127
0.426441 -0.380757 -0.388857 153 0 76
0.055201 0.085744 0.422270 127 127 0
-0.659571 -0.232528 -0.061736 127 0 127
0.300473 0.387505 0.232103 76 0 153
-0.305043 0.387505 -0.139185 76 0 153
0.037556 -0.450470 0.139198 0 127 127
0.638084 0.467357 -0.186521 76 0 153
-0.007851 0.387505 -0.041487 76 0 153
-0.659792 -0.115022 0.022531 127 0 127
-0.638915 -0.412880 0.109090 127 0 127
-0.589661 -0.450470 0.117352 0 127 127
0.137481 0.387505 -0.171032 76 0 153
-0.300174 0.467357 0.176897 76 0 153
0.348566 -0.208359 0.245757 153 0 76
-0.067001 -0.450470 -0.196870 0 127 127
-0.282515 0.343222 0.409563 76 0 153
-0.317232 0.467357 0.390684 76 0 153
-0.330149 -0.296084 0.390568 76 153 0
0.139008 -0.450470 0.423687 0 127 127
-0.033796 -0.450470 0.246482 0 127 127
-0.638655 -0.318984 -0.146974 204 51 127
0.345951 0.028155 0.128667 153 0 76
0.128601 0.387505 -0.045454 76 0 153
-0.448416 -0.578946 -0.384635 76 153 0
-0.095052 0.387505 0.351391 76 0 153
0.193496 -0.450470 -0.388379 0 127 127
0.398926 -0.310988 -0.406218 153 0 76
-0.484143 -0.171134 -0.342493 204 51 127
-0.013233 -0.386565 0.453400 76 153 0
0.149629 0.348907 -0.178724 0 0 255
-0.009642 0.302918 -0.492645 204 51 127
0.006223 -0.070152 0.424858 76 153 0
-0.212423 0.467357 -0.309153 76 0 153
-0.484666 -0.790289 0.381499 153 76 0
0.008296 -0.393671 -0.101117 76 0 153
0.267994 -0.045238 -0.450540 204 51 127
-0.206664 -0.117566 -0.162563 153 76 0
-0.271110 0.403187 0.412296 76 0 153
-0.318352 -0.393671 0.139119 76 0 153
0.325391 -0.264936 -0.428435 204 51 127
-0.071599 0.059144 -0.489372 204 51 127
-0.086066 -0.450470 0.316060 0 127 127
0.533946 0.322548 -0.291864 204 51 127
0.497469 -0.768851 -0.399390 153 0 76
-0.406846 0.057157 -0.398038 204 51 127
-0.383561 -0.032609 0.335676 153 76 0
-0.290184 0.223841 -0.162562 0 0 255
-0.329199 0.124606 0.362444 127 0 127
0.650986 0.151324 -0.070017 204 51 127
0.004480 -0.450470 -0.147126 0 127 127
-0.622444 0.467357 -0.206868 76 0 153
0.411727 -0.127648 -0.351604 153 0 76
-0.006068 0.467357 0.311904 76 0 153
0.451121 0.346548 0.296232 76 0 153
-0.481394 -0.722763 0.363072 153 76 0
-0.081890 0.256812 -0.178724 0 0 255
-0.169748 -0.010850 -0.162562 153 76 0
0.064478 -0.087903 0.421780 76 153 0
0.187048 -0.450470 -0.276350 0 127 127
0.146728 0.033853 0.411703 76 153 0
-0.104209 -0.450470 0.178635 0 127 127
0.345260 0.283183 -0.420512 204 51 127
-0.288342 0.306387 -0.162562 0 0 255
-0.335195 0.466582 -0.473478 76 0 153
0.552203 0.467357 0.199668 76 0 153
0.101686 -0.393671 0.184368 76 0 153
0.357509 -0.169312 -0.144331 127 0 127
-0.141313 -0.377665 0.074761 76 0 153
-0.449979 0.280935 -0.370823 204 51 127
0.357509 -0.194830 0.029417 127 0 127
-0.171905 0.387505 0.289899 76 0 153
0.236526 -0.450470 -0.338156 0 127 127
0.462464 -0.320255 -0.366129 153 0 76
0.142050 -0.125096 -0.162563 153 76 0
0.310277 0.467357 0.048345 76 0 153
-0.209746 -0.246316 -0.468636 204 51 127
-0.052346 -0.121464 0.451334 76 153 0
-0.241974 -0.022512 -0.459798 204 51 127
-0.025452 -0.087230 -0.491810 204 51 127
-0.171547 -0.092153 0.408958 76 153 0
0.493740 -0.230222 0.292985 127 127 0
0.556562 -0.450470 0.076678 0 127 127
0.646160 0.234494 0.060938 127 127 0
0.332746 0.028158 -0.139821 153 0 76
-0.596687 0.279701 0.189017 127 0 127
0.339364 -0.327467 0.383808 76 153 0
0.575194 0.105686 -0.243882 204 51 127
0.007179 -0.225212 -0.492366 204 51 127
0.595525 -0.058953 0.180099 127 127 0
-0.124686 0.068233 0.444993 76 153 0
-0.312685 0.467357 0.288693 76 0 153
-0.485958 0.467357 0.292756 76 0 153
-0.518903 -0.450470 0.087972 0 127 127
-0.424334 0.387505 -0.121213 76 0 153
0.191399 -0.167541 -0.178724 153 76 0
-0.117761 0.460861 -0.528313 76 0 153
0.394813 0.467357 -0.062848 76 0 153
0.281407 0.308474 0.406920 76 0 153
-0.174763 -0.450470 0.272835 0 127 127
0.450845 0.053499 0.296406 76 0 153
-0.446601 0.440012 0.368979 76 0 153
-0.265339 0.007049 0.385832 76 153 0
-0.366063 0.308419 0.377836 76 0 153
0.080373 0.196012 0.243022 255 0 0
0.348566 -0.352614 0.020721 153 0 76
-0.365247 0.304577 0.119651 153 76 0
-0.431013 -0.155764 0.305736 153 76 0
0.343016 0.196012 -0.073773 255 0 0
-0.424695 -0.423994 -0.387262 204 51 127
-0.414896 0.367770 0.315905 127 0 127
0.348566 -0.325496 0.261555 153 0 76
-0.467132 0.387505 -0.043787 76 0 153
-0.622420 0.242790 -0.181065 204 51 127
-0.340143 -0.031675 0.297457 76 0 153
-0.002557 0.467357 -0.065508 76 0 153
0.089007 0.212018 -0.064741 255 0 0
-0.330901 -0.393671 -0.048049 76 0 153
-0.347694 -0.123546 -0.422628 204 51 127
0.640986 0.288040 -0.114617 204 51 127
0.403406 0.177323 0.372876 127 127 0
-0.410298 -0.450470 0.074337 0 127 127
-0.436046 -0.206537 -0.376923 204 51 127
0.228921 0.467357 0.023168 76 0 153
-0.459108 -0.301471 -0.326060 76 153 0
-0.148334 -0.450470 -0.305161 0 127 127
-0.090409 -0.450470 -0.274160 0 127 127
0.399102 0.099957 -0.406107 153 0 76
-0.121158 0.387505 0.209868 76 0 153
0.150025 0.196012 0.155934 255 0 0
-0.659322 -0.014407 0.027126 127 0 127
-0.113581 0.387505 0.075738 76 0 153
0.041130 -0.242976 0.423014 76 153 0
-0.166034 -0.450470 0.012737 0 127 127
0.348566 -0.135865 0.257557 153 0 76
-0.546549 0.387505 0.026599 76 0 153
0.181270 0.061197 -0.473711 204 51 127
0.092912 0.226114 -0.178724 0 0 255
0.348566 -0.391947 0.213756 76 0 153
0.324080 -0.449589 -0.428958 204 51 127
0.092862 0.387505 0.014938 76 0 153
-0.356866 -0.450470 0.216124 0 127 127
0.541454 -0.281133 0.247665 127 127 0
0.635232 0.377015 -0.133107 204 51 127
-0.334595 -0.034550 0.388795 76 153 0
0.220889 -0.450470 -0.024861 0 127 127
-0.643623 -0.340924 0.093960 127 0 127
0.219431 0.212018 0.187065 255 0 0
0.431698 0.416213 -0.374624 76 0 153
-0.287002 -0.377665 0.163413 76 0 153
-0.224366 0.249665 0.397068 76 0 153
0.009973 0.467357 -0.428918 76 0 153
-0.614894 0.142043 -0.195241 204 51 127
-0.213078 -0.377665 0.219150 76 0 153
0.009220 0.196012 0.258844 255 0 0
-0.590049 0.427646 -0.244367 76 0 153
0.311839 0.106185 -0.433839 204 51 127
0.304478 -0.340202 0.369216 76 153 0
-0.582089 0.354808 -0.244974 204 51 127
-0.502793 0.000103 0.291846 127 0 127
-0.044255 0.164154 -0.490816 204 51 127
0.326036 0.387505 -0.316549 76 0 153
-0.280064 -0.324205 0.410297 76 153 0
0.109394 0.467357 -0.274372 76 0 153
-0.192050 0.467357 0.037683 76 0 153
-0.640101 -0.009795 0.105279 127 0 127
-0.360277 0.387505 0.195389 76 0 153
-0.356305 -0.289999 0.145415 76 0 153
-0.624464 0.467357 -0.082477 76 0 153
0.280597 0.467357 -0.464739 76 0 153
-0.124918 0.264450 -0.484012 204 51 127
0.169193 -0.352365 0.408093 76 153 0
0.539149 0.374526 -0.286909 204 51 127
0.348566 0.212715 0.333762 76 0 153
0.186062 0.040649 0.405382 76 153 0
0.297803 0.387505 0.364547 76 0 153
0.131711 0.321070 0.442621 76 0 153
-0.550577 -0.060044 0.246347 127 0 127
0.560408 -0.450470 -0.057177 0 127 127
-0.016754 0.387505 0.413013 76 0 153
-0.548691 0.467357 -0.165769 76 0 153
-0.340143 -0.237234 0.207268 76 0 153
0.226126 -0.054175 0.394463 76 153 0
0.577065 -0.385868 -0.241459 204 51 127
-0.051244 -0.393671 0.340363 76 0 153
-0.171118 0.212018 0.366494 255 0 0
0.463618 -0.079994 -0.365400 153 0 76
0.618341 -0.276753 0.137123 127 127 0
0.189399 -0.393671 0.092125 76 0 153
0.250113 0.432113 0.433791 76 0 153
-0.535015 -0.095430 0.261164 127 0 127
-0.220424 0.045499 0.426652 76 153 0
0.638568 0.012620 0.085335 127 127 0
-0.046757 -0.091525 0.423125 76 153 0
-0.121979 -0.020698 0.416925 76 153 0
-0.365247 -0.147871 0.001605 0 127 127
-0.343753 0.435630 -0.447741 76 0 153
0.157864 0.196012 0.398226 76 0 153
-0.268466 -0.232768 -0.452533 204 51 127
0.092090 0.196012 0.350862 255 0 0
-0.613565 -0.117010 0.160696 127 0 127
0.158974 -0.304489 0.409735 76 153 0
0.010094 0.387505 0.039450 76 0 153
0.587445 0.334123 -0.228014 204 51 127
-0.529067 -0.439851 -0.303879 204 51 127
-0.483623 0.111279 0.305817 153 76 0
-0.651854 -0.406594 -0.104555 127 0 127
0.440878 -0.196238 0.302695 76 0 153
-0.263986 -0.069832 -0.162562 153 76 0
0.045320 -0.393671 0.336628 76 0 153
-0.577826 -0.361341 -0.250496 204 51 127
-0.204240 -0.450470 0.387956 0 127 127
-0.577465 -0.126791 0.213914 127 0 127
-0.564532 -0.450470 -0.184258 0 127 127
-0.458873 0.329193 0.295171 153 76 0
0.461832 0.238721 0.291864 76 0 153
-0.376160 -0.070427 -0.370862 76 153 0
-0.402562 -0.523220 -0.406781 76 153 0
-0.506134 0.294487 -0.325714 204 51 127
0.623148 -0.163442 0.128069 127 127 0
0.348566 -0.328700 0.089692 153 0 76
0.242072 -0.450470 0.406322 0 127 127
-0.521721 0.467357 0.149961 76 0 153
0.183192 -0.393671 0.219869 76 0 153
0.332404 0.344838 0.141417 153 0 76
-0.492806 -0.450470 0.251223 127 0 127
-0.635096 -0.240556 0.120140 127 0 127
-0.164275 0.467357 0.462737 76 0 153
-0.429586 -0.307165 0.343377 127 0 127
0.332404 -0.256091 0.110462 153 0 76
-0.396146 -0.406345 0.374272 153 76 0
-0.153863 -0.045118 0.411800 76 153 0
0.347747 0.243994 -0.178724 76 0 153
0.283595 0.467357 0.121982 76 0 153
0.284077 0.387505 0.307099 76 0 153
0.609464 0.043596 -0.190893 204 51 127
0.027807 -0.209450 -0.162563 153 76 0
0.161899 -0.450470 0.108526 0 127 127
0.116836 -0.281882 -0.178724 153 76 0
-0.241831 -0.450470 0.165761 0 127 127
0.442313 -0.450470 -0.190453 0 127 127
-0.210218 -0.450470 0.204230 0 127 127
-0.156095 -0.450470 0.338070 0 127 127
-0.110415 0.053290 -0.486342 204 51 127
-0.623237 0.216147 0.142477 127 0 127
0.022581 0.387505 0.342393 76 0 153
0.571683 0.387505 -0.182761 76 0 153
0.319296 -0.396163 0.363307 76 153 0
-0.627859 0.017383 -0.170821 204 51 127
-0.428518 -0.450470 -0.024996 0 127 127
0.057399 0.467357 -0.440142 76 0 153
0.196332 -0.450470 0.055438 0 127 127
-0.192441 -0.189776 0.405600 76 153 0
-0.058414 -0.450470 0.112689 0 127 127
-0.143312 0.199135 -0.178724 0 0 255
-0.493218 -0.107938 -0.335972 204 51 127
-0.629715 -0.178797 -0.167325 204 51 127
-0.326578 -0.337042 0.391992 76 153 0
-0.050128 -0.377665 0.259161 76 0 153
0.348566 -0.300660 0.050988 153 0 76
0.151053 0.137375 0.441517 76 153 0
0.270086 0.271160 0.410912 76 0 153
0.463302 -0.618702 -0.340294 153 0 76
0.008463 -0.450470 -0.302363 0 127 127
0.436098 0.387505 0.094603 76 0 153
-0.236802 0.325195 0.422161 76 0 153
0.314391 0.387505 -0.121679 76 0 153
0.420676 -0.171314 0.361979 76 0 153
0.464605 -0.566695 0.301613 76 0 153
0.255757 -0.343017 0.386338 76 153 0
0.357508 -0.294105 0.349847 76 153 0
-0.426628 -0.106685 0.355040 153 76 0
0.546668 0.387505 0.152297 76 0 153
-0.032055 -0.022837 -0.162562 153 76 0
-0.401397 0.387505 -0.088177 76 0 153
0.007866 0.356907 0.424771 76 0 153
-0.660849 -0.087718 -0.049243 127 0 127
-0.141905 0.203374 -0.481281 204 51 127
0.616307 0.239972 0.140954 127 127 0
-0.452649 -0.021218 0.292085 153 76 0
0.207716 0.350257 -0.467070 204 51 127
0.378173 0.467357 -0.200984 76 0 153
-0.609185 -0.348802 0.168946 127 0 127
-0.164993 -0.343968 -0.477571 204 51 127
0.207189 0.150547 -0.467215 204 51 127
-0.640242 0.191592 -0.141875 127 0 127
-0.465827 -0.022724 -0.360823 76 153 0
-0.050494 0.262328 -0.490487 204 51 127
-0.538336 0.387505 0.082606 76 0 153
0.357509 -0.181503 0.282426 127 0 127
0.381131 0.056075 0.340392 76 0 153
-0.439005 0.387505 0.131983 76 0 153
-0.335507 0.338083 0.359928 76 0 153
-0.179281 0.212880 0.436218 76 0 153
-0.254215 0.212018 -0.138280 0 0 255
0.289296 -0.450470 0.158450 0 127 127
0.416228 -0.733933 0.372133 76 0 153
0.228214 0.212018 0.117060 255 0 0
0.215685 0.467357 -0.246962 76 0 153
0.517474 0.127092 0.270498 127 127 0
0.332404 -0.067876 -0.126847 153 0 76
-0.413658 0.254678 0.363223 153 76 0
0.419753 -0.312172 -0.346540 153 0 76
-0.224368 0.380065 0.427576 76 0 153
-0.362198 0.187466 -0.416844 204 51 127
-0.223732 0.179118 -0.464801 204 51 127
0.036720 -0.150993 -0.490806 204 51 127
0.483363 0.467357 -0.373932 76 0 153
0.324982 0.467357 -0.071311 76 0 153
-0.644637 0.294027 -0.127750 127 0 127
-0.005971 0.387505 -0.466837 76 0 153
-0.464058 0.467357 -0.264138 76 0 153
0.242505 -0.450470 0.105679 0 127 127
0.193137 0.384317 0.434018 76 0 153
0.289476 -0.147713 -0.162563 153 76 0
0.557618 0.467357 -0.267737 76 0 153
0.332404 -0.166870 0.180312 153 0 76
0.213986 0.196012 0.044215 255 0 0
0.599918 0.467357 -0.227201 76 0 153
0.642726 -0.233984 0.071972 127 127 0
-0.281382 -0.152505 0.381432 76 153 0
0.357509 -0.184938 0.084781 127 0 127
0.135793 0.467357 -0.523888 76 0 153
-0.378983 0.259946 -0.407878 204 51 127
-0.340671 0.196012 0.126523 255 0 0
-0.441457 -0.450470 -0.087570 0 127 127
0.055589 0.387505 0.263865 76 0 153
-0.083837 -0.450470 0.040863 0 127 127
0.175784 0.387505 -0.013487 76 0 153
0.480424 -0.083202 0.324281 76 0 153
0.652289 0.029043 0.020226 127 127 0
0.585487 0.093773 0.193499 127 127 0
-0.312592 0.196012 0.278049 255 0 0
0.088978 -0.450470 -0.206637 0 127 127
0.416496 0.387505 -0.329373 76 0 153
-0.440010 0.200282 0.300060 153 76 0
0.146082 0.467357 -0.365399 76 0 153
0.355552 0.387505 -0.101375 76 0 153
-0.655668 0.062766 -0.092300 127 0 127
0.101825 0.196012 0.097983 255 0 0
0.193484 -0.254459 -0.470973 204 51 127
-0.113764 -0.134393 0.446749 76 153 0
0.351132 0.467357 0.179475 76 0 153
-0.400562 -0.333186 -0.355465 76 153 0
-0.475528 0.048491 0.321568 153 76 0
-0.528261 0.467357 0.287542 76 0 153
-0.215140 0.006256 0.428101 76 153 0
0.357974 0.467357 0.311678 76 0 153
-0.075980 -0.238241 0.450085 76 153 0
-0.658813 -0.013432 -0.069153 127 0 127
0.229967 0.206311 -0.178724 0 0 255
-0.453639 -0.243049 -0.364416 204 51 127
-0.060638 0.294800 0.422392 76 0 153
0.249754 -0.450470 -0.288930 0 127 127
0.006059 0.273053 0.424867 76 0 153
-0.466718 -0.582144 0.343031 153 76 0
-0.313211 0.222003 -0.436378 204 51 127
0.034722 -0.450470 -0.086254 0 127 127
-0.385640 0.161536 0.334364 153 76 0
0.114033 0.196012 0.304519 255 0 0
-0.340143 -0.079549 0.285335 76 0 153
0.191846 0.256843 0.432367 76 0 153
-0.385349 -0.149276 -0.365064 76 153 0
-0.452897 -0.549528 -0.332169 76 153 0
-0.249954 -0.450470 -0.413374 0 127 127
0.348566 -0.070016 0.086637 153 0 76
-0.340143 -0.158131 -0.144221 153 76 0
-0.275413 -0.450470 0.370034 0 127 127
-0.215282 -0.045436 0.428062 76 153 0
0.424329 -0.050117 -0.343653 153 0 76
0.647812 -0.172244 0.055627 127 127 0
0.462436 -0.519763 -0.326731 153 0 76
-0.442148 0.117080 0.298710 153 76 0
0.641615 0.196283 -0.112593 204 51 127
0.055987 -0.377665 0.026837 76 0 153
0.119207 -0.125818 0.444630 76 153 0
-0.340143 -0.020032 0.033977 76 0 153
0.347731 -0.450470 0.162108 0 127 127
0.493761 0.387505 -0.148354 76 0 153
-0.186387 0.467357 -0.164507 76 0 153
0.556601 0.467357 -0.177444 76 0 153
-0.555010 -0.179597 -0.279176 204 51 127
0.295261 0.028154 -0.440450 204 51 127
0.510347 0.467357 -0.127642 76 0 153
-0.407135 0.297275 -0.351318 76 153 0
0.287028 0.467357 -0.128201 76 0 153
0.382438 -0.336804 -0.380941 153 0 76
-0.340143 -0.117389 0.063658 76 0 153
-0.041441 -0.344312 -0.178724 153 76 0
-0.321331 -0.258255 0.394085 76 153 0
-0.356305 -0.302742 0.264406 76 0 153
-0.454633 0.387505 0.191886 127 0 127
-0.076177 -0.434556 0.452080 76 153 0
-0.456844 -0.487921 0.294390 153 76 0
-0.314626 -0.377665 -0.013288 76 0 153
-0.209830 0.467357 0.105128 76 0 153
0.263619 -0.095660 -0.178724 153 76 0
0.019444 -0.132219 0.452663 76 153 0
-0.334347 0.130603 -0.427950 204 51 127
-0.480960 -0.654083 0.341372 153 76 0
-0.163771 -0.393671 -0.052675 76 0 153
0.348566 0.198459 0.074639 255 0 0
0.399409 -0.035991 -0.405914 153 0 76
-0.137588 0.387505 -0.020955 76 0 153
-0.365247 0.240014 0.353701 153 76 0
-0.445560 -0.785598 -0.399321 76 153 0
0.524687 -0.196108 -0.300680 204 51 127
-0.478194 -0.563705 -0.361818 76 153 0
0.500048 0.141922 -0.324140 204 51 127
-0.532889 -0.450470 0.174359 0 127 127
-0.542967 -0.331512 0.253593 127 0 127
0.505435 -0.450470 -0.225308 0 127 127
-0.393077 -0.503690 0.372277 153 76 0
0.108212 -0.450470 0.350547 0 127 127
0.130204 0.288334 -0.178724 0 0 255
-0.142101 0.467357 -0.370636 76 0 153
-0.356305 -0.107286 -0.162583 76 0 153
0.649262 0.002748 0.049816 127 127 0
-0.158845 -0.134797 0.411000 76 153 0
0.469872 0.136197 0.330938 76 0 153
0.440818 0.467357 -0.091108 76 0 153
0.105091 0.467357 0.193810 76 0 153
0.404326 -0.469432 -0.358060 153 0 76
0.406639 0.387505 -0.109629 76 0 153
0.472642 -0.306909 0.329190 76 0 153
0.279461 -0.202752 -0.446750 204 51 127
0.477981 -0.450470 -0.135948 0 127 127
-0.356305 -0.120905 0.320439 76 0 153
0.411787 0.219108 -0.351567 153 0 76
-0.409439 0.239266 -0.349865 76 153 0
0.347492 0.467357 0.078654 76 0 153
-0.110329 -0.393671 0.009207 76 0 153
0.428041 0.292161 -0.341311 153 0 76
0.332404 -0.170015 -0.091113 127 0 127
-0.410007 0.467357 -0.283620 76 0 153
0.257651 -0.450470 -0.138676 0 127 127
-0.500273 0.387505 0.128482 127 0 127
-0.009878 -0.235361 0.453577 76 153 0
-0.645531 0.392022 -0.059435 127 0 127
0.495105 0.326375 -0.328847 204 51 127
-0.088424 -0.377665 0.291234 76 0 153
-0.467828 0.467357 0.245713 76 0 153
0.332404 0.310164 -0.112820 76 0 153
-0.157473 0.467357 0.412256 76 0 153
0.243736 -0.377665 -0.080162 76 0 153
0.035887 -0.450470 0.405124 0 127 127
0.456885 -0.274935 0.292595 76 0 153
0.079666 0.035965 0.420978 76 153 0
-0.404002 -0.043429 -0.394306 204 51 127
-0.207352 0.467357 0.293284 76 0 153
0.330943 -0.213316 0.387166 76 153 0
-0.309251 0.369631 0.400907 76 0 153
-0.240061 0.212018 0.324683 255 0 0
-0.027429 0.387505 0.107804 76 0 153
-0.260445 -0.164771 -0.162563 153 76 0
-0.262333 -0.393671 -0.136468 76 0 153
-0.107449 -0.393671 -0.168074 76 0 153
-0.057268 0.365570 0.452287 76 0 153
0.007402 0.315018 0.462543 153 0 76
-0.219420 -0.450470 0.293070 0 127 127
-0.344518 -0.226014 -0.178724 153 76 0
0.258998 -0.450470 0.195831 0 127 127
-0.455326 -0.172872 -0.367449 204 51 127
0.164258 0.028158 -0.163711 153 76 0
0.650968 -0.365188 0.033143 127 127 0
0.481986 -0.547022 -0.358751 153 0 76
-0.030122 0.467357 0.477865 76 0 153
-0.407596 -0.561501 -0.362726 76 153 0
-0.003759 -0.350201 -0.162563 153 76 0
0.320180 -0.219450 -0.430513 204 51 127
0.303227 0.467357 -0.428870 76 0 153
-0.008131 0.467357 -0.231358 76 0 153
0.428403 -0.751595 -0.400646 153 0 76
-0.401736 -0.704048 0.368485 153 76 0
-0.172709 -0.450470 0.194792 0 127 127
0.635815 0.058029 0.094181 127 127 0
0.225192 0.059217 0.394719 76 153 0
0.649970 -0.059989 0.042897 127 127 0
-0.656760 -0.199786 0.051741 127 0 127
-0.170895 0.387505 0.402188 76 0 153
0.255699 0.387505 0.047801 76 0 153
-0.130621 -0.324239 0.415536 76 153 0
0.348566 -0.257785 -0.008466 153 0 76
-0.384282 0.467357 0.071418 76 0 153
-0.440507 -0.022863 0.346283 153 76 0
0.016984 0.350013 -0.491848 204 51 127
-0.438893 0.387505 -0.182882 76 0 153
0.448224 -0.472889 0.299945 76 0 153
0.432873 -0.243885 -0.373779 204 51 127
0.348566 -0.348435 -0.142967 153 0 76
0.022811 0.467357 0.067644 76 0 153
-0.356305 -0.302373 -0.013662 76 0 153
-0.421110 -0.663480 -0.417026 76 153 0
0.314321 -0.057621 0.393794 76 153 0
-0.292621 -0.450470 0.293499 0 127 127
-0.646172 0.275535 0.085769 127 0 127
-0.657175 -0.158738 -0.085162 127 0 127
0.214062 -0.450470 0.164657 0 127 127
-0.610752 -0.450470 -0.022394 127 0 127
-0.036388 -0.450470 -0.126403 0 127 127
0.650830 0.306072 0.034497 127 127 0
0.085915 0.467357 0.385130 76 0 153
0.036781 -0.195192 -0.490802 204 51 127
-0.553059 -0.107306 -0.281033 204 51 127
-0.604328 -0.003115 0.178093 127 0 127
0.332404 0.329077 0.331973 153 0 76
-0.427603 0.027991 -0.338404 76 153 0
0.333775 0.352755 -0.178724 0 0 255
-0.188301 0.212018 -0.035445 255 0 0
-0.244852 -0.033126 -0.162562 153 76 0
0.301058 -0.450470 -0.290192 0 127 127
-0.127548 0.467357 0.240225 76 0 153
-0.088046 0.296631 -0.178724 0 0 255
0.550516 0.039491 0.238797 127 127 0
-0.161860 0.100143 -0.478074 204 51 127
0.198693 -0.157186 0.401986 76 153 0
-0.284748 0.467357 -0.236758 76 0 153
-0.035646 -0.377665 -0.012962 76 0 153
-0.457116 -0.215908 -0.322902 76 153 0
-0.399318 -0.059339 0.372271 153 76 0
-0.435809 -0.652475 0.375001 153 76 0
-0.094736 -0.084453 -0.488150 204 51 127
-0.177852 -0.377665 0.270825 76 0 153
0.048834 0.196012 0.341851 255 0 0
0.437072 0.387505 0.178687 76 0 153
-0.233740 0.196012 0.136265 255 0 0
0.437386 0.387505 0.001216 76 0 153
-0.103397 0.212018 -0.051381 255 0 0
0.083548 0.163077 0.451282 0 0 255
0.424944 -0.786068 -0.415692 153 0 76
0.451063 -0.571227 0.354520 76 0 153
-0.340143 0.310364 -0.006709 153 76 0
0.018343 0.467357 -0.119900 76 0 153
-0.041516 -0.393671 0.043164 76 0 153
0.564445 -0.384192 0.220755 127 127 0
0.258709 -0.393671 0.240685 76 0 153
0.650095 -0.442556 -0.078725 204 51 127
-0.285903 -0.268344 -0.447267 204 51 127
0.037845 0.467357 -0.167357 76 0 153
-0.075958 -0.306153 0.421583 76 153 0
0.483303 -0.695036 0.357747 76 0 153
0.320600 0.004718 0.362787 76 153 0
-0.299246 0.196012 0.337827 255 0 0
0.428881 -0.421744 -0.387740 204 51 127
0.072834 0.196012 0.279941 255 0 0
0.268992 0.212018 -0.053868 255 0 0
0.023128 0.387505 -0.409970 76 0 153
-0.459536 0.467357 -0.049028 76 0 153
-0.525497 0.221473 0.270227 127 0 127
-0.002608 -0.377665 0.368587 76 0 153
0.408422 0.387505 -0.042157 76 0 153
-0.206159 0.282942 -0.162562 0 0 255
0.332404 0.346821 0.271471 153 0 76
0.023159 0.467357 -0.522342 76 0 153
0.289702 -0.377665 -0.076876 76 0 153
-0.053958 0.227340 0.422745 76 0 153
0.391786 0.374262 0.333670 76 0 153
0.234680 -0.450470 -0.100626 0 127 127
0.296643 -0.365733 0.400844 76 153 0
0.211774 0.467357 0.100945 76 0 153
-0.366681 -0.450470 -0.051329 0 127 127
-0.309709 0.075062 0.398719 76 153 0
-0.328138 -0.171351 -0.178724 153 76 0
0.332404 -0.284378 -0.075994 153 0 76
-0.280931 0.387505 0.177134 76 0 153
-0.320766 -0.287575 -0.162563 153 76 0
-0.529602 -0.045136 -0.303369 204 51 127
-0.258180 -0.377665 0.094282 76 0 153
0.167003 -0.059562 0.436948 76 153 0
0.654950 -0.050497 -0.031259 127 127 0
0.471012 0.467357 -0.234185 76 0 153
0.462530 0.467357 -0.019521 76 0 153
0.640719 0.116508 -0.115472 204 51 127
-0.663458 -0.413874 -0.013318 127 0 127
-0.365247 0.081484 0.375768 127 0 127
-0.021654 0.212018 0.192763 255 0 0
0.395113 0.467357 0.244601 76 0 153
-0.350772 0.387505 0.042197 76 0 153
-0.267349 -0.450470 -0.375018 0 127 127
-0.327736 -0.078047 0.363027 76 153 0
0.423092 -0.679796 -0.381495 153 0 76
0.397593 0.037348 -0.360522 153 0 76
-0.386160 0.387506 0.337262 153 76 0
-0.096973 -0.062425 -0.162562 153 76 0
0.200595 -0.223942 0.429968 76 153 0
-0.507828 0.313443 0.287052 127 0 127
0.064015 0.223218 0.450308 76 0 153
0.279728 0.387505 0.139991 76 0 153
0.427902 -0.143567 0.310882 76 0 153
-0.608296 -0.182391 0.170619 127 0 127
0.348566 0.245927 0.159092 76 0 153
-0.082165 0.170369 0.451764 0 0 255
-0.120803 -0.393671 -0.104016 76 0 153
-0.085085 0.387505 -0.073915 76 0 153
0.332404 0.356095 0.226709 153 0 76
0.278985 -0.169902 0.407885 76 153 0
0.348566 -0.349561 -0.079078 153 0 76
-0.057764 0.196012 0.057554 255 0 0
-0.589231 0.122681 -0.235725 204 51 127
-0.356305 -0.248202 0.268433 76 0 153
-0.371932 0.387505 -0.282026 76 0 153
-0.028639 0.387505 0.035288 76 0 153
0.437531 -0.784087 0.376474 76 0 153
-0.206107 0.467357 0.217191 76 0 153
-0.476639 0.129798 -0.354001 76 153 0
-0.340143 0.258066 0.026156 153 76 0
-0.305201 -0.450470 -0.377436 0 127 127
0.451983 0.141112 0.295688 76 0 153
-0.193694 0.212018 -0.113830 255 0 0
0.351925 0.240364 -0.417854 204 51 127
-0.538726 0.467357 0.237718 76 0 153
0.408236 -0.181148 -0.400344 153 0 76
-0.588356 -0.420081 0.199808 127 0 127
-0.217316 0.387505 -0.415024 76 0 153
-0.311573 -0.450470 -0.218671 0 127 127
-0.086109 0.387505 0.273513 76 0 153
0.054633 0.467357 0.259474 76 0 153
-0.292113 0.230921 0.405736 76 0 153
-0.223288 0.226012 -0.178724 0 0 255
0.357509 0.289807 -0.008754 76 0 153
-0.201149 0.298348 0.403434 76 0 153
-0.129651 -0.359068 -0.162563 153 76 0
0.097250 0.201250 -0.487215 204 51 127
-0.389545 0.163414 -0.362416 76 153 0
-0.365247 -0.163550 0.207719 0 127 127
-0.029377 -0.450470 0.294759 0 127 127
0.348566 -0.245346 0.313594 153 0 76
-0.436226 0.467357 0.327828 76 0 153
0.460701 -0.443439 -0.353779 153 0 76
0.603778 -0.261792 -0.201603 204 51 127
-0.158716 0.281969 0.411020 76 0 153
0.566385 -0.073192 0.218242 127 127 0
-0.332706 -0.193976 0.389549 76 153 0
-0.289192 0.387505 -0.279297 76 0 153
-0.640094 0.360308 0.105302 127 0 127
-0.017969 -0.123603 0.424646 76 153 0
0.416783 0.467357 -0.203367 76 0 153
-0.375361 0.387505 -0.048885 76 0 153
0.178902 -0.299151 -0.474091 204 51 127
-0.619094 0.387505 -0.097091 76 0 153
0.229953 -0.112784 -0.460972 204 51 127
-0.649264 -0.131266 -0.112879 127 0 127
-0.282940 -0.003170 -0.162562 153 76 0
-0.107824 0.126204 0.419200 76 153 0
0.348566 -0.053889 -0.046789 153 0 76
0.234842 0.467357 0.211335 76 0 153
0.357509 -0.145290 0.114126 127 0 127
-0.009218 0.176494 -0.492667 204 51 127
0.224867 -0.328044 0.423312 76 153 0
-0.356305 0.027927 0.069808 76 0 153
-0.340143 0.254397 0.170004 204 51 127
-0.396622 -0.286701 -0.398309 76 153 0
-0.104063 0.387505 0.151284 76 0 153
-0.608642 0.387505 -0.014252 76 0 153
-0.139653 0.326457 0.442588 76 0 153
-0.432258 -0.398996 -0.335466 76 153 0
-0.304586 0.467357 -0.389145 76 0 153
0.504014 -0.450470 -0.108486 0 127 127
0.615146 0.098929 -0.180192 204 51 127
-0.452220 0.295101 -0.322871 76 153 0
-0.646286 -0.292194 -0.122450 127 0 127
-0.236836 -0.177687 0.393648 76 153 0
0.178071 -0.393671 -0.066038 76 0 153
0.175579 0.284997 0.407066 76 0 153
0.036932 0.467357 -0.043022 76 0 153
0.080059 0.004238 0.449461 76 153 0
-0.166214 -0.222019 0.409815 76 153 0
-0.217787 0.387505 0.049424 76 0 153
0.288096 0.196012 0.319173 255 0 0
0.276005 -0.450470 0.285916 0 127 127
-0.038747 0.387505 0.346396 76 0 153
-0.496446 -0.308718 0.296602 127 0 127
-0.649933 0.467357 -0.153382 76 0 153
0.332404 -0.121173 0.065422 153 0 76
0.348566 0.217743 -0.141801 153 0 76
0.283660 -0.074423 0.406021 76 153 0
-0.308608 0.196012 0.204976 255 0 0
-0.358759 -0.387236 -0.418215 204 51 127
0.398509 0.213907 0.375896 76 0 153
-0.042425 0.467357 -0.246365 76 0 153
-0.019598 0.011370 0.424560 76 153 0
0.332404 0.309646 0.272876 153 0 76
0.190750 0.467357 0.417767 76 0 153
-0.111616 -0.287745 0.418591 76 153 0
0.144374 -0.450470 -0.253391 0 127 127
-0.383245 -0.275542 0.335875 153 76 0
0.406545 0.387505 0.132911 76 0 153
0.384260 -0.535273 -0.377115 153 0 76
0.323224 -0.170917 -0.162563 153 0 76
-0.210983 -0.450470 -0.288049 0 127 127
-0.475006 -0.711594 -0.394677 76 153 0
0.433740 0.315807 0.307198 76 0 153
-0.247449 0.431941 -0.473337 76 0 153
-0.001707 -0.393671 -0.026610 76 0 153
-0.559901 0.387505 0.156932 76 0 153
0.182835 -0.450470 0.187202 0 127 127
0.589674 0.467357 0.205284 76 0 153
0.482353 0.403195 -0.336021 76 0 153
-0.013621 -0.281512 0.453379 76 153 0
0.122489 -0.377665 0.317111 76 0 153
0.166318 0.379693 -0.476114 204 51 127
-0.137577 0.387505 -0.347941 76 0 153
-0.422024 -0.450470 -0.205380 0 127 127
0.344862 0.438978 -0.451409 76 0 153
0.348566 -0.049559 0.043739 153 0 76
0.332404 -0.252718 0.257252 153 0 76
0.578246 -0.450470 -0.210870 0 127 127
0.332404 -0.166512 0.217245 153 0 76
0.296387 -0.450470 -0.037660 0 127 127
-0.403633 0.196472 -0.400065 204 51 127
-0.254850 -0.249236 0.388708 76 153 0
-0.350993 0.387505 0.137514 76 0 153
-0.540102 0.360224 -0.293371 204 51 127
-0.330017 0.387505 -0.377307 76 0 153
-0.340143 -0.105563 0.248636 76 0 153
-0.176944 0.351456 0.436594 76 0 153
0.401435 -0.520181 0.377001 76 0 153
-0.571726 -0.270290 0.221348 127 0 127
-0.340143 -0.236613 0.044134 76 0 153
0.079788 0.467357 -0.227692 76 0 153
-0.073032 0.387505 -0.025833 76 0 153
-0.248267 -0.450470 0.025110 0 127 127
0.482299 -0.450470 -0.294820 0 127 127
-0.276810 -0.077236 0.382686 76 153 0
-0.356305 -0.322073 0.104940 76 0 153
0.569886 -0.145026 0.213707 127 127 0
0.016294 0.010867 0.452829 76 153 0
0.102622 0.387505 -0.334723 76 0 153
0.348566 -0.211776 0.108560 127 0 127
-0.531726 0.467357 -0.237971 76 0 153
-0.187458 -0.355984 0.434904 76 153 0
-0.444679 -0.450470 0.061088 0 127 127
0.195639 0.387505 -0.222424 76 0 153
-0.295377 0.164558 0.406440 0 0 255
0.348566 -0.244471 -0.178502 153 76 0
-0.356305 -0.351193 0.178052 76 0 153
0.202294 -0.450470 -0.352614 0 127 127
-0.262731 -0.377665 -0.065301 76 0 153
0.003973 0.196012 0.388889 255 0 0
-0.356305 0.359260 -0.033413 204 51 127
0.289303 0.365570 0.401485 76 0 153
0.109947 -0.393671 -0.134538 76 0 153
0.332969 0.359951 -0.137518 153 0 76
-0.032251 -0.377665 0.189794 76 0 153
-0.052274 0.108622 0.460254 127 127 0
-0.660582 0.097033 0.014808 127 0 127
0.469979 -0.810335 -0.430996 153 0 76
0.244598 0.196012 -0.024192 255 0 0
-0.083483 0.242230 0.449689 76 0 153
0.576365 -0.450470 0.155700 204 51 127
-0.356305 -0.294131 0.210146 76 0 153
-0.435281 -0.091354 0.303043 153 76 0
-0.456342 0.089838 -0.321675 76 153 0
0.413211 -0.639430 0.388853 76 0 153
-0.556249 0.442206 0.289269 76 0 153
-0.056276 0.387505 -0.409644 76 0 153
-0.084134 0.467357 0.297785 76 0 153
-0.340143 0.250005 0.082673 204 51 127
-0.438978 -0.722233 -0.381350 76 153 0
-0.443942 0.317000 -0.374632 204 51 127
-0.475286 -0.132697 0.324339 153 76 0
-0.165726 -0.291352 -0.477453 204 51 127
-0.196267 -0.450470 -0.402143 0 127 127
0.180635 0.212018 -0.108245 255 0 0
0.196035 -0.450470 -0.109165 0 127 127
0.469475 -0.793502 0.395314 76 0 153
0.348566 0.236640 0.244540 153 0 76
0.257519 0.354169 -0.178724 0 0 255
0.259898 -0.450470 0.007478 0 127 127
0.311914 0.307998 -0.433809 204 51 127
0.104376 -0.300603 0.447014 76 153 0
-0.274067 0.387505 0.111091 76 0 153
-0.296559 0.387505 0.052706 76 0 153
-0.121483 0.212018 0.342865 255 0 0
0.651182 0.088054 0.031053 127 127 0
-0.138859 0.374897 0.444721 76 0 153
-0.130346 -0.450470 0.135213 0 127 127
-0.437578 0.173616 0.338909 153 76 0
-0.171802 0.467357 0.272942 76 0 153
0.131735 -0.195298 0.414113 76 153 0
0.006425 -0.003117 -0.162562 153 76 0
-0.033878 -0.204608 -0.491365 204 51 127
-0.593874 -0.184487 -0.229710 204 51 127
-0.231182 -0.014312 0.395198 76 153 0
0.521214 0.467357 -0.252171 76 0 153
0.144338 -0.377665 0.238562 76 0 153
0.241366 0.196012 0.303774 255 0 0
0.321537 0.300074 0.390917 76 0 153
-0.129579 -0.263975 -0.162563 153 76 0
0.511640 0.290450 0.276053 127 127 0
-0.356305 -0.197066 0.150508 76 0 153
-0.173711 -0.393671 -0.136127 76 0 153
-0.180705 -0.377665 0.123241 76 0 153
0.236291 -0.393671 0.175799 76 0 153
0.011024 0.098145 -0.492163 204 51 127
0.123542 -0.450470 -0.320815 0 127 127
0.350045 0.387505 0.179507 76 0 153
0.015397 -0.450470 -0.183070 0 127 127
-0.251558 -0.450470 0.076219 0 127 127
0.505460 -0.226303 -0.318987 204 51 127
-0.036806 0.384168 -0.491210 204 51 127
0.172168 -0.450470 0.254031 0 127 127
-0.356305 -0.290568 -0.075117 76 0 153
-0.382463 -0.450470 0.164286 0 127 127
-0.054217 -0.393671 0.109142 76 0 153
0.152235 -0.312053 -0.162563 153 76 0
-0.202848 0.387505 -0.197413 76 0 153
0.040389 0.387505 -0.012014 76 0 153
-0.365247 -0.204479 0.349789 76 153 0
0.281678 0.122930 -0.445866 204 51 127
-0.187933 -0.450470 0.120718 0 127 127
-0.243631 0.467357 0.426106 76 0 153
-0.346570 0.467357 -0.286804 76 0 153
-0.474102 -0.203106 0.325086 127 0 127
0.476219 -0.512994 0.332094 76 0 153
-0.408883 -0.372171 0.319698 153 76 0
0.221708 -0.393671 0.240823 76 0 153
-0.017170 0.081056 0.491523 127 127 0
0.116986 -0.063828 0.416484 76 153 0
0.189258 -0.416609 0.404573 0 127 127
-0.400216 -0.157718 0.325167 153 76 0
0.217916 0.467357 -0.332778 76 0 153
-0.429252 -0.587553 0.322887 153 76 0
0.339541 -0.393671 -0.032424 76 0 153
0.348566 -0.364078 0.189405 153 0 76
-0.661444 0.077665 -0.043426 127 0 127
0.141092 -0.243966 0.412609 76 153 0
0.115119 -0.377665 0.003349 76 0 153
-0.350584 -0.393671 0.343593 127 0 127
-0.340143 0.215080 0.343295 76 0 153
-0.004742 0.130683 0.425794 127 127 0
0.581120 -0.127278 -0.236206 204 51 127
-0.322248 -0.377665 0.367816 76 153 0
-0.207062 -0.162630 -0.162563 153 76 0
0.238844 0.319033 0.419479 76 0 153
-0.500344 0.387505 -0.157877 76 0 153
0.557448 -0.450470 0.217084 0 127 127
-0.488610 0.057660 -0.339283 204 51 127
-0.107652 0.467357 0.030469 76 0 153
-0.051203 -0.178240 -0.162563 153 76 0
0.257884 -0.131487 0.414258 76 153 0
0.026156 0.467357 -0.272280 76 0 153
-0.340143 -0.045931 0.100585 76 0 153
-0.453434 -0.501369 -0.372804 76 153 0
0.610166 0.387505 0.104695 76 0 153
0.174462 0.077437 0.407246 76 153 0
-0.504469 0.387505 0.260540 76 0 153
0.091564 0.379075 -0.487908 204 51 127
-0.082364 -0.148780 -0.488803 204 51 127
-0.451779 0.467357 -0.352900 76 0 153
0.007609 0.212018 -0.144292 0 0 255
0.438751 -0.111377 -0.369554 204 51 127
-0.002364 -0.420356 0.445843 0 127 127
0.292957 0.387505 -0.400214 76 0 153
-0.340143 -0.371098 -0.147720 76 0 153
-0.319784 -0.118833 -0.162563 153 76 0
0.652434 -0.411959 -0.055852 204 51 127
0.237808 0.467357 0.307120 76 0 153
0.452030 0.024087 -0.372712 153 0 76
0.059657 -0.266902 0.450539 76 153 0
-0.315984 0.280320 -0.162562 0 0 255
0.152295 0.387505 -0.367528 76 0 153
-0.252052 -0.450470 0.327749 0 127 127
0.348566 -0.040310 0.108513 153 0 76
-0.166019 0.009957 0.409847 76 153 0
-0.356305 -0.297400 -0.155314 76 0 153
0.439513 0.467357 -0.128464 76 0 153
0.238161 0.387505 0.191023 76 0 153
-0.033639 -0.157900 0.452322 76 153 0
0.369551 0.467357 -0.401844 76 0 153
-0.328667 0.308314 -0.430215 204 51 127
-0.380587 0.467357 -0.354326 76 0 153
-0.172163 0.196012 0.106546 255 0 0
0.332404 -0.253036 0.059285 153 0 76
0.379359 -0.078295 0.345544 76 0 153
-0.663787 0.032781 -0.020520 127 0 127
0.666623 0.467357 -0.033137 76 0 153
0.649113 0.369737 0.051275 127 127 0
0.362128 -0.448287 -0.412823 204 51 127
