ply
format ascii 1.0
element vertex 1270
property float x
property float y
property float z
property uchar red
property uchar green
property uchar blue
end_header
-0.677318 -0.246339 -0.080802 127 0 127
0.357797 0.346377 0.112143 0 127 127
-0.381863 -0.205963 0.106728 0 127 127
0.644021 0.567407 0.101106 0 0 255
0.775194 0.186816 0.051824 127 0 127
-0.712367 0.561470 0.112143 76 0 153
0.341876 -0.207436 0.101106 76 153 0
0.775194 -0.256877 0.047380 153 0 76
0.757782 -0.242660 -0.042438 0 127 127
-0.313801 -0.379762 -0.042809 153 0 76
0.361272 -0.419253 0.045922 153 76 0
-0.751606 0.259175 0.121610 127 0 127
0.043466 -0.124929 -0.110705 255 0 0
0.386915 0.014998 0.112143 0 127 127
0.763333 0.553645 -0.115957 76 0 153
0.674810 0.286077 0.113983 76 153 0
0.341067 0.476249 -0.079179 127 127 0
-0.277066 -0.128296 0.112142 255 0 0
-0.533190 -0.073340 0.113983 0 127 127
0.481254 0.178786 -0.112278 76 0 153
0.342907 0.191237 -0.069282 127 127 0
-0.429111 -0.001218 -0.112278 76 0 153
0.572741 0.158180 0.112143 76 153 0
-0.431923 0.247764 0.113983 0 127 127
0.407775 -0.104290 -0.115957 76 0 153
0.702057 -0.457982 -0.112278 76 0 153
-0.738889 0.049347 0.112143 127 0 127
0.767836 0.523745 0.088243 153 0 76
-0.324838 0.567001 -0.051298 76 0 153
-0.740942 0.283443 -0.089165 127 127 0
-0.554172 0.410589 0.113983 0 127 127
0.603139 0.574086 0.040441 0 0 255
-0.542442 0.067280 -0.112278 76 0 153
-0.328517 -0.398365 -0.070412 153 0 76
-0.316347 -0.124929 -0.107993 255 0 0
0.127010 -0.368641 -0.115957 76 0 153
-0.011548 -0.426610 -0.057506 153 76 0
0.753721 -0.246339 -0.081070 0 127 127
-0.173697 -0.437647 -0.102091 153 76 0
-0.313801 -0.303663 -0.025280 153 0 76
-0.100480 -0.196392 -0.115957 76 0 153
-0.163362 -0.257374 -0.101361 0 255 0
-0.324838 -0.281999 -0.040931 153 0 76
0.046512 -0.135966 0.048685 255 0 0
0.530372 0.212397 0.113983 76 153 0
-0.469854 -0.453541 -0.115957 76 0 153
0.677588 -0.250018 0.019650 0 127 127
0.117193 -0.267597 -0.115957 76 0 153
-0.760804 0.484975 0.022111 255 0 0
0.656687 0.239556 0.112143 76 153 0
-0.324838 -0.057877 -0.109228 153 0 76
0.749440 0.591153 0.102966 153 0 76
0.312792 -0.257374 0.089935 0 255 0
0.530466 0.577071 0.119501 0 0 255
-0.768125 0.599840 -0.046240 76 0 153
-0.526061 -0.073418 -0.115957 76 0 153
0.326351 -0.441626 0.043885 76 153 0
0.179912 -0.113892 -0.015597 255 0 0
-0.330357 -0.175297 -0.013907 0 255 0
-0.332561 -0.449565 -0.082846 153 0 76
-0.755285 0.564120 -0.019641 76 0 153
0.727721 0.283443 -0.091958 127 0 127
0.296298 -0.342456 -0.115957 76 0 153
0.594689 -0.174762 0.112143 76 153 0
0.337388 0.429454 0.090192 76 153 0
-0.349647 -0.249591 0.075353 127 0 127
-0.616576 0.290765 0.113983 0 127 127
-0.753689 -0.429436 -0.079167 153 76 0
0.761072 -0.002506 0.123180 0 127 127
-0.332196 -0.358837 -0.076789 153 0 76
0.741010 -0.108067 0.123180 0 127 127
0.716419 0.275980 -0.115957 76 0 153
-0.719398 0.226571 0.112143 127 0 127
-0.412960 0.289956 -0.111011 127 127 0
0.767836 0.101029 0.079712 153 0 76
-0.083243 -0.204541 -0.115957 76 0 153
-0.420201 -0.232833 0.119501 153 0 76
0.767836 -0.042713 0.075215 127 0 127
-0.762644 -0.226561 0.018010 255 0 0
-0.710277 -0.104823 0.112143 0 127 127
-0.542466 0.007139 -0.115957 76 0 153
-0.539709 -0.250018 -0.039962 127 0 127
0.366936 0.395109 -0.115957 76 0 153
-0.724370 0.581445 0.120168 76 0 153
-0.674910 0.074974 -0.115957 76 0 153
0.180246 -0.437647 0.094793 153 76 0
0.715974 -0.021744 -0.112278 76 0 153
-0.228113 -0.246337 -0.091034 0 255 0
-0.400874 -0.422932 -0.077980 153 76 0
-0.328517 0.135549 0.046851 0 255 0
-0.394536 0.599840 0.128521 76 0 153
-0.751606 0.482221 0.117511 127 0 127
0.341067 -0.025590 -0.069694 127 127 0
0.507703 -0.315383 -0.112278 76 0 153
0.429285 -0.196253 0.112143 76 153 0
-0.576337 0.323090 -0.115957 76 0 153
0.463029 0.581445 -0.094283 0 0 255
0.764088 -0.295598 -0.115957 76 0 153
0.326351 -0.474424 -0.013129 76 153 0
0.184227 -0.470886 -0.115957 76 0 153
-0.415419 -0.262377 -0.115957 76 0 153
-0.385259 -0.419253 0.073538 153 76 0
-0.188139 -0.257374 0.025894 0 255 0
-0.666400 0.574086 -0.056266 76 0 153
-0.565409 -0.426611 -0.007900 153 76 0
-0.675411 0.574086 0.037501 76 0 153
0.641566 -0.443684 -0.115957 76 0 153
-0.330357 0.376027 0.074171 0 255 0
-0.302680 -0.200587 0.112143 153 0 76
0.767836 0.157650 -0.108929 153 0 76
-0.676403 0.237660 -0.115957 76 0 153
-0.677401 0.581445 -0.086898 76 0 153
0.771515 -0.298116 -0.004946 153 0 76
-0.721619 -0.219464 0.123180 127 0 127
0.778873 -0.437572 0.077984 153 0 76
0.402014 -0.404537 0.109444 0 0 255
0.504659 -0.108868 -0.112278 76 0 153
-0.313801 -0.377878 -0.016173 153 0 76
0.096317 -0.246337 -0.103243 0 255 0
-0.375013 0.306317 0.112143 127 0 127
0.406498 -0.235302 -0.076140 127 127 0
-0.335875 0.390738 0.091864 153 0 76
0.773354 0.131211 0.014660 127 0 127
0.232890 -0.246337 -0.078342 0 255 0
0.558832 -0.421969 0.101106 0 0 255
0.569546 0.525395 0.123180 0 127 127
0.337388 0.511885 0.110648 76 153 0
-0.141316 -0.124929 -0.082107 255 0 0
-0.736890 -0.117141 0.103200 204 51 127
-0.548038 0.489375 -0.115957 76 0 153
-0.114740 -0.135966 0.018395 255 0 0
-0.347177 -0.016035 0.112143 127 0 127
-0.628882 0.097305 -0.115957 76 0 153
0.438542 -0.419253 0.077872 153 76 0
-0.739796 0.117324 0.112143 204 51 127
0.348425 0.544384 -0.077562 127 127 0
0.634326 0.338789 0.112143 76 153 0
-0.760804 0.478607 -0.062775 255 0 0
-0.348793 -0.280232 -0.112278 76 0 153
0.662903 -0.235302 0.007813 127 127 0
0.348425 0.538359 -0.102320 76 153 0
-0.313801 -0.330279 -0.061908 153 0 76
-0.678676 0.577765 0.065904 76 0 153
-0.716257 -0.250018 0.066113 127 0 127
0.686194 -0.365008 0.119501 76 0 153
-0.375856 0.096854 -0.115957 76 0 153
-0.645482 -0.091331 0.113983 0 127 127
0.595560 -0.350636 0.119501 76 0 153
-0.342907 0.038007 -0.112278 76 0 153
0.053536 -0.113892 -0.072319 255 0 0
0.168682 -0.318177 -0.115957 76 0 153
-0.431818 -0.430291 -0.099189 153 76 0
-0.335780 -0.142925 -0.115957 76 0 153
-0.670065 -0.242660 0.071825 127 0 127
-0.330357 -0.115862 -0.013916 0 255 0
0.337388 -0.139340 -0.004284 76 153 0
-0.427651 -0.150524 -0.115957 76 0 153
0.778873 -0.133946 -0.099272 153 0 76
-0.580828 0.033053 -0.112278 76 0 153
0.598259 0.223771 -0.112278 76 0 153
-0.356253 0.038333 0.123180 127 0 127
0.085567 -0.426610 -0.064702 153 76 0
0.158794 -0.461915 0.107488 0 0 255
-0.703673 0.292699 -0.115957 76 0 153
-0.155537 -0.416215 -0.112278 76 0 153
-0.709197 0.283443 -0.091342 127 127 0
0.443265 -0.250018 -0.022185 0 127 127
-0.762644 -0.163172 -0.047135 255 0 0
-0.336736 -0.351999 0.101106 153 0 76
-0.095256 -0.124929 0.031632 255 0 0
-0.372385 0.581445 -0.089147 76 0 153
0.011516 -0.246337 -0.030949 0 255 0
0.775194 0.252792 0.014371 127 0 127
-0.766323 0.590950 0.085113 204 51 127
-0.638366 0.568860 0.101106 76 0 153
-0.332196 -0.301799 0.022236 153 0 76
-0.330357 -0.110326 -0.066368 0 255 0
0.775194 -0.427261 -0.017985 153 0 76
-0.575215 -0.404537 0.102162 0 0 255
-0.410104 -0.242660 0.093034 127 0 127
0.174056 -0.135966 -0.100735 255 0 0
0.588661 -0.131378 0.112143 76 153 0
-0.659819 -0.261996 -0.115957 76 0 153
-0.051228 -0.400356 -0.115957 76 0 153
-0.482496 -0.299704 -0.112278 76 0 153
0.665379 0.315767 0.113983 76 153 0
-0.656017 0.577765 -0.000744 76 0 153
0.749440 0.257140 0.105019 153 0 76
0.143129 -0.124929 0.080077 255 0 0
0.326351 -0.322332 -0.081588 76 153 0
-0.766323 0.138363 -0.109388 204 51 127
0.456213 -0.425344 -0.115957 76 0 153
0.083225 -0.257374 0.008918 0 255 0
0.546343 0.451931 0.113983 76 153 0
0.342907 0.474967 -0.045870 127 127 0
-0.387591 -0.422932 0.054475 153 76 0
-0.736890 -0.161157 0.106562 204 51 127
-0.678355 -0.422932 -0.064655 153 76 0
-0.758656 0.397486 0.101106 204 51 127
-0.779401 0.597080 0.035225 76 0 153
0.366821 0.409106 0.108493 76 153 0
0.596325 0.001164 0.112143 76 153 0
-0.730008 -0.176921 0.112143 127 0 127
-0.673494 -0.235302 -0.040383 0 255 0
0.775194 -0.163842 -0.034899 127 0 127
0.706595 0.416273 -0.115957 76 0 153
0.597194 0.577765 -0.052594 0 0 255
0.775194 -0.019329 -0.052553 127 0 127
0.608527 0.405546 -0.115957 76 0 153
-0.025574 -0.437647 0.019047 153 76 0
-0.538534 -0.422932 0.074718 153 76 0
-0.762644 0.360773 0.019887 255 0 0
-0.601345 0.390915 -0.115957 76 0 153
-0.330357 0.533159 0.036286 0 255 0
-0.667372 -0.422932 0.050493 153 76 0
-0.074854 -0.246337 0.046926 0 255 0
-0.462100 0.577765 -0.020834 76 0 153
0.419932 -0.461022 0.112143 0 0 255
-0.613421 0.599840 0.112684 76 0 153
0.433414 0.574086 -0.008361 0 0 255
-0.552868 0.449666 -0.115957 76 0 153
0.342907 0.215875 0.024101 127 127 0
-0.755285 -0.233518 0.081201 204 51 127
-0.328517 0.293219 0.030955 0 255 0
0.775194 0.283279 0.046685 127 0 127
0.655176 -0.430291 -0.085004 153 76 0
0.567387 0.504185 0.106900 76 153 0
0.773354 0.367272 -0.047720 127 0 127
-0.538188 -0.242660 -0.090188 127 0 127
0.771515 -0.352727 0.050215 153 0 76
0.667921 0.264310 -0.112278 76 0 153
0.677644 -0.171199 -0.112278 76 0 153
0.036308 -0.360278 -0.115957 76 0 153
-0.122790 -0.426610 0.061982 153 76 0
-0.708403 0.123984 0.106625 0 127 127
-0.562344 -0.250018 0.033587 127 0 127
0.348425 -0.129009 0.077873 76 153 0
0.057931 -0.113892 -0.106349 255 0 0
-0.762644 0.531741 -0.049713 255 0 0
-0.633931 0.202576 -0.115957 76 0 153
0.348425 0.529081 0.089288 76 153 0
0.437609 0.283443 -0.110398 127 0 127
0.512659 -0.266689 0.123180 76 0 153
0.119597 -0.246337 0.059165 0 255 0
0.337388 -0.385743 0.107515 76 153 0
-0.766323 0.556639 0.043351 76 0 153
-0.738746 0.442928 0.123180 127 0 127
-0.433761 0.577765 0.027779 76 0 153
0.438497 -0.278040 -0.115957 76 0 153
0.348425 0.289548 -0.099603 76 153 0
0.658900 -0.102554 -0.112278 76 0 153
0.385219 0.136057 -0.115957 76 0 153
0.582008 -0.250018 0.006581 0 127 127
-0.206620 -0.437647 0.039370 153 76 0
-0.252410 -0.437647 0.070291 153 76 0
-0.755285 -0.173941 -0.098321 204 51 127
0.734066 0.306110 0.123180 0 127 127
-0.353495 -0.090202 0.112143 153 0 76
-0.672883 -0.138997 0.112143 0 127 127
-0.744393 0.195828 0.112143 127 0 127
-0.084342 -0.246337 -0.070521 0 255 0
0.541680 -0.313669 0.115822 76 0 153
-0.723637 0.317679 -0.112278 76 0 153
-0.709160 -0.422932 -0.019614 153 76 0
0.771515 -0.343323 -0.075479 153 0 76
0.778079 0.112138 0.101106 153 0 76
0.193342 -0.289561 -0.115957 76 0 153
0.652813 -0.255807 0.123180 76 0 153
-0.755285 0.405685 0.085054 204 51 127
0.632246 0.008243 0.112143 76 153 0
-0.565201 0.570407 0.115308 76 0 153
0.646926 -0.250018 -0.048840 0 127 127
0.438330 -0.235302 -0.098719 127 127 0
0.532801 -0.016395 -0.112278 76 0 153
-0.762644 0.454627 -0.044595 255 0 0
-0.490844 0.283443 -0.079967 127 127 0
-0.313801 -0.368473 -0.058208 153 0 76
0.326351 -0.363105 -0.009408 76 153 0
-0.328517 0.002168 0.016702 0 255 0
0.517395 0.283443 -0.079383 127 0 127
0.778873 -0.239234 0.009499 153 0 76
-0.391784 -0.045645 -0.115957 76 0 153
0.391390 -0.101496 0.106625 76 153 0
-0.619177 -0.330387 -0.112278 76 0 153
0.636038 -0.152452 -0.112278 76 0 153
0.344746 0.589356 0.071945 76 153 0
0.625173 -0.235302 0.025723 127 127 0
0.555175 -0.382528 -0.115957 76 0 153
-0.603761 -0.235302 -0.066050 0 255 0
-0.329138 0.276000 0.112143 153 0 76
0.603243 0.077389 0.112143 76 153 0
-0.655239 -0.113231 -0.115957 76 0 153
-0.591823 -0.419253 -0.103196 153 76 0
0.374962 0.003482 -0.115957 76 0 153
0.567122 -0.122737 0.113983 76 153 0
0.734095 0.152995 -0.112278 76 0 153
0.341067 0.537676 0.056498 127 127 0
-0.766323 0.076581 -0.087303 204 51 127
0.034587 -0.291642 -0.115957 76 0 153
0.480252 0.033134 -0.112278 76 0 153
-0.766323 -0.109301 -0.102215 204 51 127
0.528849 0.527648 0.112143 0 127 127
0.586366 0.273255 0.112143 76 153 0
-0.697070 -0.218160 0.113983 0 127 127
0.050941 -0.124929 0.035364 255 0 0
0.415156 -0.246339 0.015148 0 127 127
-0.371423 0.434546 0.123180 127 0 127
0.433610 -0.322315 0.115822 76 0 153
0.352852 0.581445 -0.054036 0 0 255
0.502408 -0.144484 0.113983 76 153 0
-0.436667 -0.251731 0.101106 127 0 127
-0.736890 -0.422458 0.110098 204 51 127
0.756369 0.283443 -0.077033 127 0 127
-0.451583 -0.009072 0.112143 0 127 127
0.551099 -0.297030 -0.115957 76 0 153
-0.651545 0.044120 0.112143 0 127 127
-0.632263 0.246845 -0.115957 76 0 153
-0.762644 -0.066158 0.018401 255 0 0
-0.689997 0.570407 0.083438 76 0 153
-0.147087 -0.124929 -0.013792 255 0 0
-0.728475 0.085744 0.112143 127 0 127
-0.448571 -0.422932 -0.022558 153 76 0
-0.207751 -0.419481 -0.115957 76 0 153
-0.762644 0.177121 -0.040452 255 0 0
-0.760804 -0.030462 0.017050 255 0 0
0.341067 0.247570 -0.069177 127 127 0
0.337388 0.564993 -0.115155 76 153 0
-0.597360 0.466542 0.113983 0 127 127
-0.762644 0.316868 0.071187 255 0 0
-0.451510 -0.430020 0.112143 0 0 255
-0.137721 -0.113892 0.062306 255 0 0
-0.008661 -0.410984 -0.112278 76 0 153
-0.649349 -0.255208 0.123180 153 0 76
-0.760804 -0.182435 0.035478 255 0 0
-0.641119 0.501303 -0.112278 76 0 153
-0.328517 -0.033547 0.048138 0 255 0
-0.335875 0.240397 -0.111669 153 0 76
-0.310395 0.595241 0.012127 76 0 153
0.288725 -0.257374 -0.017520 0 255 0
-0.438328 0.329323 -0.115957 76 0 153
-0.330357 -0.220582 -0.047571 0 255 0
0.436551 0.577765 -0.057988 0 0 255
0.348425 -0.386930 -0.084757 76 153 0
-0.739728 -0.459206 0.112143 204 51 127
-0.064235 -0.257374 -0.062491 0 255 0
-0.656832 -0.224939 0.112143 0 127 127
-0.334655 0.500123 0.101106 153 0 76
-0.614549 0.369386 0.112143 0 127 127
-0.480456 0.577765 0.026362 76 0 153
-0.688463 0.548768 -0.115957 76 0 153
-0.531703 -0.033293 -0.112278 76 0 153
-0.374290 -0.250018 0.026245 127 0 127
-0.357370 -0.350939 -0.112278 76 0 153
0.341067 -0.086798 0.003410 127 127 0
-0.313801 -0.409586 0.034892 153 0 76
0.342907 -0.203294 -0.085906 127 127 0
0.773354 0.020350 0.046485 127 0 127
0.161992 -0.124929 0.016276 255 0 0
0.562147 -0.049123 -0.112278 76 0 153
-0.508612 -0.250018 -0.086038 127 0 127
0.341067 0.532395 0.006496 127 127 0
0.342907 0.191877 -0.025617 127 127 0
-0.762644 -0.319731 -0.085641 204 51 127
0.034223 -0.124929 0.024276 255 0 0
0.032919 -0.234291 -0.115957 76 0 153
-0.746411 0.164026 -0.115957 76 0 153
0.341067 -0.286270 0.054087 76 153 0
-0.682912 0.026319 -0.112278 76 0 153
0.778873 -0.340016 -0.096574 153 0 76
0.770969 0.407945 -0.112278 76 0 153
0.312105 -0.372406 -0.112278 76 0 153
-0.537544 0.267437 -0.115957 76 0 153
-0.766323 -0.194094 -0.105990 204 51 127
-0.755285 0.041892 0.095853 204 51 127
0.263592 -0.426610 -0.086938 153 76 0
0.498746 -0.008972 -0.115957 76 0 153
0.773354 0.496900 -0.087481 127 0 127
0.551111 0.064950 0.113983 76 153 0
-0.731924 0.293689 -0.067146 127 127 0
-0.542766 -0.422932 -0.056083 153 76 0
-0.708190 -0.156437 -0.112278 76 0 153
0.391675 -0.250018 0.058219 0 127 127
0.613924 0.289642 -0.112278 76 0 153
0.634350 -0.328462 -0.115957 76 0 153
-0.357597 -0.250018 -0.082772 127 0 127
-0.091933 -0.124929 -0.034740 255 0 0
-0.605931 -0.203373 -0.112278 76 0 153
-0.760804 0.260748 0.034791 255 0 0
0.367019 0.389994 0.112143 0 127 127
0.543640 0.086934 0.112143 76 153 0
0.694155 -0.395201 0.112143 0 127 127
0.341067 -0.283864 -0.000444 76 153 0
-0.762644 -0.110452 0.021291 255 0 0
-0.500731 0.492555 -0.115957 76 0 153
0.626025 -0.250018 -0.044185 0 127 127
0.470216 0.580789 0.119501 0 0 255
-0.559996 -0.433794 -0.115957 76 0 153
0.475179 0.562127 -0.115957 76 0 153
0.570657 -0.453031 -0.112278 76 0 153
-0.081248 -0.184356 -0.115957 76 0 153
0.558755 0.435841 0.113983 76 153 0
0.342907 -0.193512 0.049946 127 127 0
0.057675 -0.135966 -0.046138 255 0 0
-0.758964 -0.297442 0.068963 204 51 127
0.767836 -0.240485 -0.098397 127 127 0
-0.450814 -0.250018 -0.002578 127 0 127
-0.533532 -0.393517 0.112143 127 0 127
0.028619 -0.135966 -0.095233 255 0 0
-0.330357 -0.144560 -0.022622 0 255 0
0.661330 -0.181753 0.112143 76 153 0
0.767836 0.561347 -0.068553 0 0 255
-0.107875 -0.426611 0.108386 0 0 255
-0.390547 0.372299 0.113983 0 127 127
-0.289241 -0.330798 -0.115957 76 0 153
-0.282038 -0.257374 -0.012188 0 255 0
-0.159190 -0.398924 -0.115957 76 0 153
0.331870 -0.248500 0.073006 0 255 0
-0.461993 -0.246339 0.056098 127 0 127
0.393567 -0.182048 -0.112278 76 0 153
0.682488 -0.253697 0.098271 0 127 127
0.642885 -0.430291 -0.104429 153 76 0
-0.493630 0.279383 0.112143 0 127 127
0.733415 -0.257078 -0.115957 76 0 153
0.773354 0.287273 -0.071299 127 0 127
0.342907 0.103793 0.006131 127 127 0
0.380039 0.123222 0.112143 0 127 127
-0.715152 -0.024470 -0.115957 76 0 153
-0.755285 0.578183 0.009381 76 0 153
0.185142 -0.426610 -0.073485 153 76 0
-0.330357 0.001788 0.054480 0 255 0
0.590321 0.515626 -0.112278 76 0 153
0.674039 0.531993 -0.112278 76 0 153
-0.394296 0.538645 0.101106 76 0 153
-0.631886 -0.426611 -0.068065 153 76 0
-0.762644 0.273875 -0.045437 255 0 0
-0.310984 0.594685 0.125997 76 0 153
0.778873 0.427348 0.071584 153 0 76
0.476991 -0.469529 -0.115957 76 0 153
-0.787082 0.610877 -0.065221 76 0 153
0.326351 -0.216924 0.044018 76 153 0
-0.760676 0.289065 -0.115957 76 0 153
-0.322422 -0.321680 0.112143 153 0 76
0.666507 -0.453210 0.101106 0 0 255
-0.760804 0.386260 -0.011203 255 0 0
-0.328517 -0.269444 0.016553 153 0 76
0.775194 -0.373174 -0.082915 153 0 76
0.361066 -0.419253 -0.063605 153 76 0
-0.377613 -0.430291 -0.098453 153 76 0
-0.324838 -0.457246 0.009869 153 0 76
0.554381 0.282432 -0.112278 76 0 153
0.259577 -0.257374 -0.050227 0 255 0
0.673275 0.093025 -0.112278 76 0 153
0.450778 0.523306 -0.115957 76 0 153
0.348425 -0.255271 0.030230 76 153 0
0.469479 0.137453 0.113983 76 153 0
-0.762644 -0.034519 -0.077408 255 0 0
0.341067 0.063053 0.012626 127 127 0
-0.653321 0.377294 -0.115957 76 0 153
0.342907 0.041466 -0.089219 127 127 0
0.531747 -0.386778 0.123180 0 127 127
0.098795 -0.197172 -0.112278 76 0 153
0.563457 -0.246339 -0.040147 127 127 0
0.767836 -0.372183 0.084896 153 0 76
0.342907 0.384277 0.062638 127 127 0
0.600122 -0.430291 0.093276 153 76 0
-0.762644 0.353604 -0.040515 255 0 0
-0.765002 0.006934 -0.082846 204 51 127
0.295996 -0.124929 -0.057395 255 0 0
0.728677 -0.242660 0.082064 0 127 127
-0.518228 0.365912 -0.115957 76 0 153
-0.441539 0.492463 0.113983 0 127 127
0.739291 0.570407 -0.026037 0 0 255
0.431606 0.327548 0.112143 76 153 0
0.391167 -0.077482 0.106625 76 153 0
0.179921 -0.124929 0.042531 255 0 0
0.341067 0.293361 0.072788 127 127 0
0.727860 0.465514 0.123180 0 127 127
-0.462694 0.261302 -0.112278 76 0 153
0.536298 0.499155 0.106625 76 153 0
-0.455388 0.127929 0.112143 0 127 127
-0.118567 -0.124929 -0.060980 255 0 0
-0.313801 -0.192914 -0.037185 153 0 76
-0.647545 0.415910 0.112143 0 127 127
-0.080205 -0.437647 0.093706 153 76 0
0.069642 -0.246337 -0.035527 0 255 0
-0.578665 -0.250018 0.055054 127 0 127
0.395052 0.570407 0.085246 0 0 255
-0.751606 -0.067383 0.114844 127 0 127
-0.367631 0.583448 0.119501 76 0 153
-0.277391 -0.124929 -0.099786 255 0 0
0.775194 0.495722 0.049824 127 0 127
0.411073 -0.223573 -0.115957 76 0 153
0.219533 -0.246337 0.050425 0 255 0
-0.077670 -0.246337 -0.090359 0 255 0
-0.408772 0.301382 0.113983 0 127 127
-0.693718 0.040047 0.112143 0 127 127
0.730932 0.577765 -0.040214 0 0 255
0.644147 0.065240 -0.112278 76 0 153
0.041372 -0.246337 -0.087280 0 255 0
-0.126955 -0.124929 0.011954 255 0 0
-0.306973 -0.437647 0.068324 153 76 0
0.381225 -0.419253 0.025397 153 76 0
0.020780 -0.113892 0.029429 255 0 0
0.773354 0.253468 -0.071586 127 0 127
-0.335875 0.561862 0.015532 76 0 153
0.618001 -0.242712 -0.115957 76 0 153
-0.395096 -0.215198 0.113983 0 127 127
0.497485 -0.235302 -0.068775 127 127 0
0.524676 0.574086 0.060794 0 0 255
-0.169499 -0.246337 0.030175 0 255 0
0.457489 0.312976 0.113983 76 153 0
-0.516180 -0.242660 0.075132 127 0 127
0.508498 0.261551 0.112143 76 153 0
0.204903 -0.124929 0.015393 255 0 0
-0.205423 -0.135966 -0.103707 255 0 0
0.376340 0.507092 -0.112278 76 0 153
-0.399399 0.126479 -0.115957 76 0 153
0.597997 0.572866 -0.112278 0 0 255
0.365830 0.235363 0.101106 76 153 0
-0.328517 0.394368 0.001050 0 255 0
-0.565753 0.382673 0.112143 0 127 127
0.270573 -0.246337 -0.009676 0 255 0
-0.324838 -0.420018 0.081443 153 0 76
0.775194 0.472890 0.054780 127 0 127
0.343737 0.375898 0.101106 76 153 0
-0.106270 -0.124929 -0.012705 255 0 0
0.336631 -0.124929 0.047682 76 153 0
0.081126 -0.124929 0.013336 255 0 0
-0.435829 -0.464152 -0.115957 76 0 153
-0.708678 0.054085 0.106625 0 127 127
0.744718 0.543608 0.123180 0 127 127
0.354918 0.256572 0.123180 0 127 127
0.365051 0.046394 0.123180 0 127 127
-0.324838 -0.325050 -0.098504 153 0 76
0.043237 -0.124929 -0.021125 255 0 0
0.611264 -0.078089 0.113983 76 153 0
0.337388 -0.325981 -0.017396 76 153 0
0.710055 0.176637 -0.115957 76 0 153
0.729324 0.570407 -0.101736 0 0 255
0.247417 -0.135966 0.074078 255 0 0
-0.457147 0.022920 0.112143 0 127 127
0.577584 -0.403545 0.123180 0 127 127
-0.596174 -0.081493 -0.112278 76 0 153
0.395050 -0.306442 -0.112278 76 0 153
0.775194 -0.364280 0.067998 153 0 76
-0.354270 0.329078 0.104060 153 0 76
0.429094 0.139958 0.113983 76 153 0
0.341067 0.542423 -0.034483 127 127 0
-0.354270 0.542638 0.104643 153 0 76
0.778873 -0.452555 0.096002 153 0 76
-0.707745 -0.246339 0.014534 0 255 0
-0.330357 -0.152446 0.034350 0 255 0
0.400004 -0.250018 -0.068021 0 127 127
0.001798 -0.113892 -0.048411 255 0 0
0.631485 -0.422932 -0.024855 153 76 0
-0.564919 -0.319603 -0.115957 76 0 153
-0.335875 0.085720 -0.091417 153 0 76
0.001749 -0.113892 -0.084078 255 0 0
0.701712 -0.104870 0.113983 76 153 0
0.750235 -0.075416 -0.112278 76 0 153
-0.397324 -0.325166 -0.115957 76 0 153
0.551334 0.544654 0.116146 0 127 127
0.186273 -0.124929 -0.094772 255 0 0
0.775194 0.381147 0.022863 127 0 127
-0.598389 -0.426611 -0.070883 153 76 0
0.749672 -0.301154 0.112143 0 127 127
-0.207459 -0.246337 -0.056525 0 255 0
0.004572 -0.426610 -0.089137 153 76 0
0.438048 0.420242 -0.112278 76 0 153
-0.442721 0.052571 0.113983 0 127 127
0.326351 -0.268232 0.075810 76 153 0
-0.472285 -0.340710 -0.115957 76 0 153
-0.324838 0.330578 -0.100440 153 0 76
0.454184 -0.135647 0.112143 76 153 0
0.076374 -0.124929 0.048821 255 0 0
-0.232025 -0.426610 -0.064134 153 76 0
0.414500 0.435602 -0.115957 76 0 153
-0.466740 0.581445 0.088098 76 0 153
0.145898 -0.257374 0.094981 0 255 0
0.469597 -0.250563 -0.112278 76 0 153
0.771515 -0.388391 -0.065296 153 0 76
-0.762644 0.413731 0.005467 255 0 0
0.692353 0.540858 0.112143 0 127 127
-0.388073 0.567893 0.101106 76 0 153
-0.659872 0.018692 0.113983 0 127 127
0.512525 -0.235302 -0.000455 127 127 0
-0.666565 -0.430291 0.100635 153 76 0
0.579822 0.581445 -0.089715 0 0 255
0.653561 0.477958 0.112143 76 153 0
0.242039 -0.466191 0.112144 0 0 255
-0.544177 0.570407 -0.101671 76 0 153
-0.592254 -0.263955 0.123180 153 0 76
0.361276 -0.358752 0.123180 0 127 127
-0.695584 -0.369243 0.119501 127 0 127
-0.291276 -0.246337 -0.105739 0 255 0
0.772767 -0.185560 0.112143 153 0 76
-0.392416 -0.086920 -0.115957 76 0 153
-0.054829 -0.218525 -0.112278 76 0 153
-0.330357 0.497558 -0.014419 0 255 0
-0.466561 0.469424 -0.115957 76 0 153
0.773354 0.102792 -0.017954 127 0 127
-0.328517 0.132686 -0.026176 0 255 0
-0.335613 0.015777 0.112143 153 0 76
0.337388 -0.015831 0.072531 76 153 0
-0.402862 -0.148753 0.112143 0 127 127
0.786231 0.589217 0.072282 0 0 255
-0.335875 0.474530 0.088350 153 0 76
-0.313801 -0.189263 0.097227 153 0 76
-0.759450 0.067877 0.101106 204 51 127
0.714383 -0.471937 0.101106 0 0 255
-0.755285 0.542456 0.017239 255 0 0
-0.762644 -0.254359 -0.043860 204 51 127
0.566404 -0.238962 0.123180 76 0 153
0.337388 0.144254 0.076079 76 153 0
0.681588 0.137138 0.113983 76 153 0
0.712616 0.076720 0.113983 76 153 0
-0.491550 0.026914 0.113983 0 127 127
0.391303 -0.419253 -0.102199 153 76 0
-0.698966 0.519644 -0.112278 76 0 153
-0.406210 0.571266 0.101106 76 0 153
-0.353244 -0.227365 0.112143 153 0 76
0.251511 -0.113892 0.074822 255 0 0
0.773354 -0.117325 -0.000504 127 0 127
-0.313801 -0.406740 -0.037267 153 0 76
-0.231033 -0.314741 -0.115957 76 0 153
-0.620945 0.154989 -0.115957 76 0 153
-0.756861 0.204617 -0.115957 76 0 153
-0.785181 0.610877 -0.020928 76 0 153
0.565615 -0.426611 -0.024632 153 76 0
0.626848 0.207414 -0.115957 76 0 153
-0.288687 -0.246337 -0.070710 0 255 0
0.778873 -0.469878 -0.044821 153 0 76
-0.423673 -0.235302 -0.065018 0 255 0
0.385931 0.154777 -0.112278 76 0 153
-0.067713 -0.346224 -0.115957 76 0 153
0.699775 -0.207017 -0.115957 76 0 153
0.008761 -0.426610 -0.067419 153 76 0
-0.673360 -0.241873 0.112143 153 0 76
0.337388 -0.079727 -0.106652 76 153 0
-0.571231 0.296456 -0.115957 76 0 153
-0.337724 0.610877 0.123883 76 0 153
0.455955 -0.046351 0.112143 76 153 0
0.575900 -0.034000 -0.112278 76 0 153
0.709166 -0.242660 0.090534 0 127 127
-0.563749 -0.173264 0.113983 0 127 127
0.341067 0.013350 -0.004314 127 127 0
0.717648 -0.422932 -0.067250 153 76 0
-0.220933 -0.251581 0.101105 0 255 0
-0.609890 -0.315264 -0.115957 76 0 153
0.087043 -0.246337 0.040916 0 255 0
-0.465979 0.053466 -0.115957 76 0 153
-0.019360 -0.113892 -0.089292 255 0 0
-0.522872 -0.186772 0.113983 0 127 127
0.352276 0.586249 0.101106 76 153 0
0.339030 0.063646 -0.115957 76 153 0
0.352511 0.494870 0.112143 76 153 0
0.342907 -0.123980 0.013886 127 127 0
0.773354 0.093961 -0.050731 127 0 127
-0.762644 0.045840 0.055740 255 0 0
0.419753 0.300478 0.113983 76 153 0
0.483140 -0.232107 0.123180 76 0 153
-0.762644 0.516484 -0.077150 255 0 0
0.326351 -0.329315 0.012967 76 153 0
-0.770944 0.572854 0.021053 76 0 153
0.001269 -0.124929 0.074471 255 0 0
-0.000784 -0.437647 -0.003290 153 76 0
-0.634448 -0.430291 0.086679 153 76 0
0.342907 0.148373 -0.013611 127 127 0
-0.681308 0.576057 0.101106 76 0 153
-0.695252 -0.329280 0.115822 153 0 76
0.716080 -0.375105 0.116306 0 127 127
-0.324838 -0.380297 -0.094807 153 0 76
-0.335875 -0.425042 -0.026163 153 76 0
-0.720611 0.204859 -0.115957 76 0 153
-0.729473 -0.101973 -0.112278 76 0 153
0.346740 -0.455228 0.101106 76 153 0
0.539943 -0.438666 -0.115957 76 0 153
-0.190316 -0.328496 -0.115957 76 0 153
-0.454547 -0.419253 -0.101046 153 76 0
-0.522079 0.577765 0.023433 76 0 153
-0.185068 -0.437647 0.053556 153 76 0
0.623972 0.507864 0.115218 0 127 127
0.018252 -0.426610 -0.023674 153 76 0
-0.231710 -0.113892 0.107971 255 0 0
0.546684 -0.093427 -0.115957 76 0 153
0.761063 0.102985 0.112143 0 127 127
0.616867 0.163868 -0.115957 76 0 153
0.544915 -0.231745 0.106625 76 153 0
0.580542 0.574086 -0.067770 0 0 255
0.591426 -0.297112 0.119501 76 0 153
-0.675126 0.330249 0.113983 0 127 127
0.142268 -0.426610 0.046005 153 76 0
-0.582795 -0.214919 0.113983 0 127 127
-0.315891 -0.434014 -0.112219 153 76 0
-0.748453 -0.362339 -0.115957 76 0 153
0.769417 0.581445 0.049573 0 0 255
0.772957 -0.437390 -0.112278 76 0 153
0.272288 -0.136700 -0.115957 76 0 153
-0.335875 0.356937 -0.095234 153 0 76
-0.376345 -0.223600 0.117099 127 0 127
0.492283 -0.246339 -0.034773 127 127 0
-0.119496 -0.124929 0.060197 255 0 0
-0.431313 0.109640 -0.115957 76 0 153
0.279897 -0.257374 -0.097972 0 255 0
0.697277 0.055648 0.113983 76 153 0
-0.698117 -0.459783 0.112143 0 0 255
0.268771 -0.257374 -0.024984 0 255 0
0.341067 -0.259631 -0.074527 76 153 0
0.069601 -0.124929 -0.038992 255 0 0
0.775194 0.123281 -0.030722 127 0 127
-0.354270 -0.460531 0.103235 0 0 255
0.337388 0.288731 0.101850 76 153 0
-0.712294 -0.447889 0.112143 0 0 255
-0.313801 -0.328929 0.024209 153 0 76
-0.495186 0.592442 0.119501 76 0 153
-0.335239 -0.227944 0.030134 153 0 76
0.341067 -0.148011 0.021382 127 127 0
-0.416447 0.025877 0.112143 0 127 127
-0.481007 0.010308 0.113983 0 127 127
-0.738989 -0.235302 0.030824 0 255 0
-0.671561 -0.430291 -0.102169 153 76 0
0.120597 -0.164633 -0.112278 76 0 153
-0.653128 0.255493 -0.115957 76 0 153
-0.297103 -0.442331 0.101106 153 0 76
0.341067 -0.358084 0.011438 76 153 0
-0.324838 0.571322 0.005970 76 0 153
0.439078 -0.346936 -0.115957 76 0 153
-0.762644 -0.051195 0.065436 255 0 0
0.773354 0.347882 0.047149 127 0 127
0.341067 -0.345615 -0.085203 76 153 0
-0.000256 -0.124929 0.043795 255 0 0
-0.607560 0.504185 0.112232 0 127 127
-0.145510 -0.437647 -0.061542 153 76 0
0.775194 -0.403540 0.068245 153 0 76
0.613037 -0.435467 -0.115957 76 0 153
0.196152 -0.211765 -0.112278 76 0 153
-0.563137 0.091453 -0.112278 76 0 153
0.348425 -0.255203 0.056323 76 153 0
0.337388 0.375906 -0.093445 76 153 0
-0.198146 -0.124929 0.067837 255 0 0
-0.619894 -0.250018 -0.014719 127 0 127
-0.625536 0.481429 -0.115957 76 0 153
-0.391375 -0.253697 -0.100783 127 0 127
-0.217011 -0.246337 0.033566 0 255 0
0.366821 -0.378205 0.111027 76 153 0
0.706187 0.170198 0.112143 76 153 0
0.769909 -0.403482 0.101106 153 0 76
0.335058 -0.216014 -0.115898 76 153 0
0.313102 -0.246337 0.043665 0 255 0
-0.423243 0.570407 0.082541 76 0 153
-0.415372 -0.052868 0.113983 0 127 127
0.342907 0.094320 0.062426 127 127 0
0.746325 -0.154117 -0.115957 76 0 153
0.344746 -0.425847 -0.058062 76 153 0
-0.406821 0.377291 -0.112278 76 0 153
0.342907 -0.093712 -0.067118 127 127 0
0.552165 -0.348716 -0.112278 76 0 153
0.348425 -0.324923 0.094114 76 153 0
0.715520 -0.336832 -0.112278 76 0 153
-0.436872 0.526376 0.112143 127 0 127
0.373395 -0.210218 0.112143 0 127 127
0.491543 0.577765 0.003827 0 0 255
0.348425 0.006971 0.082476 76 153 0
-0.760804 0.022332 0.034435 255 0 0
-0.324838 -0.372618 0.060176 153 0 76
-0.762644 0.560709 -0.084859 76 0 153
0.400628 0.080744 0.113983 76 153 0
-0.550336 -0.200550 -0.115957 76 0 153
0.341067 0.315142 0.012469 127 127 0
-0.324838 0.186361 0.100403 153 0 76
0.724987 -0.150789 0.106625 76 153 0
0.326608 0.585779 0.054985 0 0 255
-0.364124 0.391140 0.123180 127 0 127
0.360951 -0.065886 -0.112278 76 0 153
0.337388 0.087288 0.106411 76 153 0
0.516376 -0.096525 0.112143 76 153 0
0.509796 -0.419253 0.085558 153 76 0
0.307956 -0.439312 0.106810 76 153 0
-0.335875 -0.131902 -0.090347 153 0 76
-0.455261 0.079946 -0.115957 76 0 153
-0.368152 0.503018 0.123180 127 0 127
0.762408 -0.253697 0.034166 0 127 127
0.430640 0.514347 0.112143 0 127 127
0.706289 -0.246339 -0.019865 0 127 127
-0.313801 -0.294100 -0.078737 153 0 76
0.773354 0.311605 0.013759 127 0 127
-0.333790 0.171554 -0.090204 153 0 76
0.433727 -0.363992 0.115822 76 0 153
-0.354270 0.293843 0.102326 153 0 76
-0.694963 0.545471 0.112143 76 0 153
0.525960 0.610877 0.127458 0 0 255
0.341067 0.527817 -0.062485 127 127 0
-0.335875 0.578926 -0.045241 76 0 153
0.649969 -0.348064 -0.112278 76 0 153
-0.762644 0.110879 0.066525 255 0 0
0.750985 0.465979 -0.115957 76 0 153
0.778873 0.361332 0.083870 153 0 76
-0.579306 -0.427290 0.101106 153 76 0
-0.736890 0.233824 0.108188 204 51 127
-0.713058 -0.309042 0.115822 127 0 127
-0.324838 0.441954 -0.110619 153 0 76
-0.263023 -0.248734 0.101165 0 255 0
0.775194 0.412963 0.011430 127 0 127
0.638981 0.467028 0.112143 76 153 0
0.439677 0.574086 0.064966 0 0 255
-0.371662 -0.444316 0.112143 0 0 255
-0.605822 -0.113801 0.112143 0 127 127
0.044480 -0.246337 0.085043 0 255 0
-0.021473 -0.176015 -0.115957 76 0 153
0.519603 0.266333 -0.115957 76 0 153
0.775194 0.145192 -0.007437 127 0 127
0.790353 0.599840 0.057138 0 0 255
0.614061 -0.009852 -0.115957 76 0 153
-0.607972 -0.150994 0.113983 0 127 127
-0.204040 -0.124929 -0.085356 255 0 0
-0.714314 -0.246983 -0.086525 127 0 127
-0.328517 0.076123 0.055475 0 255 0
0.750575 0.429894 -0.115957 76 0 153
-0.330357 0.447241 -0.038102 0 255 0
-0.667858 0.282534 -0.112278 76 0 153
0.724521 -0.039457 0.106625 76 153 0
0.384172 0.355592 0.113983 76 153 0
-0.221887 -0.113892 -0.091924 255 0 0
0.540182 -0.013802 0.112143 76 153 0
0.417299 -0.430291 0.085933 153 76 0
0.337388 0.601809 0.034736 0 0 255
-0.766323 -0.472498 0.032951 204 51 127
0.601571 0.363080 0.113983 76 153 0
-0.688182 0.147914 -0.115957 76 0 153
-0.442251 -0.246339 -0.019755 127 0 127
0.510744 0.226938 0.112143 76 153 0
0.165291 -0.139194 -0.115957 76 0 153
0.778873 -0.285294 0.111081 153 0 76
-0.640840 -0.153323 0.113983 0 127 127
-0.376908 -0.186156 0.123180 127 0 127
-0.755285 0.218529 0.088777 204 51 127
-0.548884 0.587452 0.112143 76 0 153
0.337388 -0.265735 -0.019379 76 153 0
0.674522 0.166377 -0.115957 76 0 153
0.304690 -0.418706 -0.112278 76 0 153
0.773354 0.460867 -0.041092 127 0 127
0.775194 0.143701 0.042674 127 0 127
-0.697266 -0.001875 0.112143 0 127 127
0.371376 -0.157650 0.123180 0 127 127
0.360980 0.112036 0.123180 0 127 127
-0.395701 0.516018 0.123180 127 0 127
-0.330357 -0.301691 -0.113263 76 0 153
-0.429347 -0.037460 -0.112278 76 0 153
-0.709934 0.574086 -0.027122 76 0 153
-0.764503 -0.478118 0.109923 204 51 127
-0.760804 0.142031 -0.030673 255 0 0
0.775194 -0.284770 -0.028050 153 0 76
-0.501993 0.323576 -0.112278 76 0 153
0.341067 0.431641 -0.044257 127 127 0
-0.501586 -0.427913 0.067995 153 76 0
0.383225 0.048185 -0.112278 76 0 153
-0.314155 0.610877 -0.103354 76 0 153
-0.180332 -0.124929 0.046989 255 0 0
0.441257 0.574872 -0.112278 76 0 153
0.195981 -0.426610 0.043647 153 76 0
-0.313801 -0.204869 -0.070037 153 0 76
0.560956 0.129095 0.113983 76 153 0
-0.052639 -0.135966 0.085723 255 0 0
-0.689459 0.104746 -0.112278 76 0 153
-0.130151 -0.257374 0.033692 0 255 0
0.533809 -0.253697 -0.108770 0 127 127
0.341067 -0.476674 0.068488 76 153 0
-0.714642 0.402268 0.123180 127 0 127
0.209985 -0.135966 -0.055341 255 0 0
0.629296 -0.426844 0.101106 153 76 0
0.385829 0.484336 0.113983 76 153 0
-0.506928 -0.411448 0.112143 127 0 127
0.235472 -0.246337 -0.055577 0 255 0
0.394735 -0.280751 0.112143 0 127 127
-0.434241 0.057295 -0.115957 76 0 153
0.256071 -0.248415 -0.115957 76 0 153
0.511928 -0.040601 -0.112278 76 0 153
-0.145596 -0.119161 -0.115898 255 0 0
-0.787793 0.604775 0.065907 76 0 153
0.777117 -0.227944 -0.024853 153 0 76
-0.751606 -0.124607 0.113363 127 0 127
-0.594294 -0.419253 -0.085733 153 76 0
0.583432 -0.103753 -0.112278 76 0 153
-0.007108 -0.437647 -0.032570 153 76 0
-0.481213 -0.123781 0.113983 0 127 127
0.311611 -0.437647 -0.024808 153 76 0
0.470852 -0.407760 0.112143 0 127 127
-0.458111 -0.252012 -0.112278 127 0 127
-0.606782 0.351599 -0.115957 76 0 153
0.733005 0.054301 -0.112278 76 0 153
-0.760804 0.314355 -0.003596 255 0 0
0.128294 -0.426610 -0.045085 153 76 0
-0.231378 -0.437647 -0.096874 153 76 0
-0.766323 -0.089944 -0.099612 204 51 127
-0.765740 0.051584 -0.115957 204 51 127
0.327016 0.594971 0.122515 0 0 255
0.634227 -0.173036 -0.115957 76 0 153
-0.434790 -0.242660 -0.105616 127 0 127
-0.493173 0.276142 -0.112278 76 0 153
0.349020 0.326033 0.112143 76 153 0
0.337388 -0.230259 -0.106771 76 153 0
-0.287490 -0.437647 -0.084005 153 76 0
-0.522210 -0.281573 -0.112278 76 0 153
-0.316103 -0.157123 -0.115957 76 0 153
0.587878 0.390087 0.112143 76 153 0
0.366795 -0.076657 0.112143 0 127 127
0.337388 0.562778 -0.078022 0 0 255
0.428522 0.536117 -0.115957 76 0 153
-0.589540 -0.422932 0.040046 153 76 0
-0.330357 -0.004610 -0.090020 0 255 0
0.008792 -0.242511 -0.112278 76 0 153
0.749440 0.232877 0.101661 153 0 76
0.778873 0.318429 0.083406 153 0 76
-0.680170 0.401269 -0.112278 76 0 153
-0.505868 0.577765 0.038804 76 0 153
0.722688 0.406528 -0.112278 76 0 153
0.453973 -0.226554 0.112143 76 153 0
0.762508 0.431501 0.112143 0 127 127
-0.758768 -0.019834 -0.115957 76 0 153
0.337388 0.610528 -0.029089 0 0 255
0.675916 0.453191 -0.112278 76 0 153
-0.402667 -0.019690 -0.112278 76 0 153
-0.335875 -0.237163 -0.068018 153 0 76
-0.330357 0.421945 -0.042967 0 255 0
-0.557114 0.458980 0.113983 0 127 127
-0.519867 0.584270 0.122052 76 0 153
-0.649558 0.186024 0.112143 0 127 127
0.778873 0.152736 0.079962 153 0 76
-0.307297 -0.124929 -0.043617 255 0 0
0.737042 0.574086 0.005496 0 0 255
-0.464109 0.434074 -0.112278 76 0 153
0.295252 -0.246337 -0.050993 0 255 0
0.243213 -0.124929 -0.058535 255 0 0
0.773354 0.391764 -0.062311 127 0 127
0.773354 0.462248 -0.068092 127 0 127
0.735372 0.185607 0.112143 0 127 127
-0.691421 -0.101320 -0.115957 76 0 153
0.413601 -0.419253 -0.111795 153 76 0
-0.712456 0.474215 0.123180 127 0 127
0.264614 -0.211939 -0.112278 76 0 153
0.164274 -0.394190 -0.115957 76 0 153
0.356169 0.547658 0.101106 76 153 0
0.774188 0.157321 0.112143 153 0 76
-0.372636 -0.358723 0.123180 127 0 127
0.341067 -0.115434 -0.002214 127 127 0
0.764157 -0.067849 0.112975 0 127 127
0.724517 0.570407 0.080022 0 0 255
-0.587262 -0.245658 0.037643 0 255 0
0.376665 0.570407 -0.049137 0 0 255
0.492327 0.019922 -0.115957 76 0 153
-0.385189 0.570407 -0.087614 76 0 153
-0.755285 -0.468305 0.087534 204 51 127
0.379773 -0.253697 0.027624 0 127 127
0.315074 -0.135966 -0.014212 255 0 0
-0.186200 -0.246337 -0.026755 0 255 0
-0.741368 0.397697 -0.115957 76 0 153
-0.738313 0.570407 -0.060843 76 0 153
0.389699 0.065801 0.119501 0 127 127
-0.527558 0.574086 -0.015693 76 0 153
0.452640 0.577765 -0.008603 0 0 255
0.343569 0.500543 0.075353 76 153 0
-0.727971 -0.015536 0.112143 127 0 127
0.687214 -0.475987 -0.115957 76 0 153
-0.177627 -0.383105 -0.112278 76 0 153
-0.507754 -0.419253 0.082294 153 76 0
0.410642 0.300029 -0.112278 76 0 153
0.678819 0.171056 0.112143 76 153 0
0.058984 -0.476605 -0.112278 76 0 153
0.552824 -0.478118 -0.113807 76 0 153
0.412368 0.035614 -0.115957 76 0 153
-0.374080 -0.093747 -0.112278 76 0 153
-0.519828 0.564307 -0.112278 76 0 153
0.379217 -0.416257 0.112143 0 0 255
-0.746030 -0.011448 0.112143 204 51 127
-0.330357 0.511513 -0.059069 0 255 0
-0.063575 -0.124929 -0.081815 255 0 0
-0.758964 -0.281056 -0.060254 204 51 127
-0.532302 0.506181 -0.112278 76 0 153
0.337388 -0.223020 -0.023097 76 153 0
0.702079 -0.458073 0.101106 0 0 255
0.577536 0.570407 0.100685 0 0 255
-0.330357 0.106551 -0.007409 0 255 0
0.305642 -0.113892 -0.039292 255 0 0
-0.335875 -0.424127 -0.103548 153 0 76
0.681208 0.245775 0.113983 76 153 0
0.341067 0.251171 0.052499 127 127 0
0.341067 0.133219 0.015966 127 127 0
0.341067 0.198393 0.021064 127 127 0
-0.430744 0.185723 -0.115957 76 0 153
0.599884 -0.426611 -0.001137 153 76 0
-0.755285 0.430774 0.089519 204 51 127
0.342907 -0.217017 -0.047582 127 127 0
-0.404517 0.061545 0.112143 0 127 127
0.085977 -0.439373 0.112151 0 0 255
0.767836 -0.475004 -0.010212 153 0 76
0.232972 -0.281475 -0.112278 76 0 153
-0.549574 0.416181 -0.112278 76 0 153
-0.526988 0.574086 -0.083971 76 0 153
0.360091 -0.242660 0.081500 0 127 127
-0.602271 0.446683 -0.115957 76 0 153
-0.653889 0.162852 -0.115957 76 0 153
0.455332 -0.430291 -0.099813 153 76 0
0.367512 0.141502 -0.112278 76 0 153
-0.650418 -0.154630 -0.115957 76 0 153
-0.233802 -0.195054 -0.115957 76 0 153
-0.576117 0.150824 0.113983 0 127 127
-0.545938 -0.231557 -0.115957 76 0 153
-0.674642 0.563199 -0.115957 76 0 153
0.342907 0.252311 -0.017862 127 127 0
-0.505931 -0.242044 0.037643 0 255 0
0.647283 -0.246339 0.035903 127 127 0
0.010456 -0.124929 -0.018537 255 0 0
-0.666909 -0.373510 0.123180 127 0 127
0.041519 -0.113892 0.109993 255 0 0
-0.324838 -0.265914 -0.065874 153 0 76
-0.689183 0.405098 0.112143 0 127 127
-0.701424 0.203086 -0.112278 76 0 153
0.073847 -0.288792 -0.112278 76 0 153
0.165856 -0.124929 -0.054399 255 0 0
-0.538552 0.269569 0.113983 0 127 127
0.683206 -0.227944 0.107336 76 153 0
-0.758964 -0.407659 0.038003 204 51 127
0.316086 -0.437647 -0.073774 153 76 0
-0.330357 -0.066232 0.045543 0 255 0
-0.706456 -0.206981 -0.112278 76 0 153
-0.364442 -0.172704 0.123180 127 0 127
-0.696043 0.204758 0.113983 0 127 127
0.374629 0.574086 0.053909 0 0 255
0.674998 -0.207817 -0.112278 76 0 153
-0.382634 0.244522 0.112143 0 127 127
-0.647247 0.366188 0.112143 0 127 127
-0.592757 -0.422932 -0.007465 153 76 0
0.710924 0.389758 0.113983 76 153 0
-0.328517 0.488143 0.051365 0 255 0
-0.787157 0.604405 0.084388 76 0 153
-0.760804 0.101227 0.039561 255 0 0
0.561041 0.351668 0.113983 76 153 0
0.772693 -0.227944 -0.062656 127 0 127
-0.468482 -0.448340 0.101106 0 0 255
0.331929 -0.113892 0.021745 255 0 0
0.337388 -0.253262 -0.107858 76 153 0
0.039967 -0.254252 0.101105 0 255 0
-0.733713 0.254920 0.112143 127 0 127
0.683998 -0.419253 -0.089006 153 76 0
-0.337828 0.374741 -0.112278 76 0 153
-0.368987 -0.243900 -0.029609 0 255 0
0.321783 0.610877 0.016623 0 0 255
0.185312 -0.189157 -0.115957 76 0 153
0.775194 0.454761 -0.090075 153 0 76
-0.703128 0.432768 -0.112278 76 0 153
0.748239 0.289863 -0.112278 76 0 153
-0.434440 -0.235302 0.017859 0 255 0
0.390458 -0.424217 0.101106 0 0 255
-0.328517 -0.179570 -0.033749 0 255 0
0.513658 0.294480 -0.106813 127 0 127
-0.358733 0.224648 -0.112278 76 0 153
-0.330357 -0.410520 -0.115684 153 0 76
0.370420 0.131527 0.123180 0 127 127
0.678124 0.238439 -0.115957 76 0 153
-0.205663 -0.135966 0.010218 255 0 0
0.720008 -0.255687 0.115420 76 0 153
-0.755285 0.207477 -0.085855 255 0 0
0.215702 -0.426610 -0.053040 153 76 0
0.507428 0.168849 -0.115957 76 0 153
0.284270 -0.135966 0.002835 255 0 0
-0.761438 0.109757 -0.090204 204 51 127
-0.335875 -0.477946 -0.060118 153 0 76
0.203300 -0.113892 -0.023290 255 0 0
-0.713754 0.448150 0.112143 0 127 127
0.621380 -0.009138 0.112143 76 153 0
0.152165 -0.257374 -0.069370 0 255 0
0.348425 -0.152516 0.086829 76 153 0
-0.580378 0.577765 -0.019921 76 0 153
0.328333 -0.152074 0.112143 76 153 0
-0.133668 -0.257374 -0.085785 0 255 0
-0.678111 0.574086 -0.010443 76 0 153
0.201078 -0.257374 -0.033232 0 255 0
-0.313801 -0.261622 -0.086820 153 0 76
0.493597 -0.286423 0.115822 76 0 153
0.102500 -0.135966 -0.066184 255 0 0
-0.016567 -0.246337 -0.088822 0 255 0
0.378333 0.537296 0.101395 0 0 255
-0.563262 -0.253697 0.100064 127 0 127
-0.515167 0.581445 0.097995 76 0 153
-0.335875 -0.346697 -0.104024 153 0 76
0.210199 -0.426610 -0.085682 153 76 0
-0.478971 0.166963 0.113983 0 127 127
0.315351 0.610877 0.054996 0 0 255
-0.311038 -0.153151 0.101106 153 0 76
0.775194 0.457976 -0.018944 127 0 127
0.549995 -0.180393 0.113983 76 153 0
-0.431639 -0.323010 -0.112278 76 0 153
0.348425 0.333476 0.077352 76 153 0
-0.355992 0.195755 0.123180 127 0 127
-0.324838 -0.390723 0.085665 153 0 76
-0.538740 0.141304 0.113983 0 127 127
0.621086 -0.430291 -0.086585 153 76 0
0.348425 0.270044 0.079920 76 153 0
-0.324838 0.313549 -0.085034 153 0 76
-0.324838 -0.399295 0.007499 153 0 76
0.481075 0.504185 0.112720 76 153 0
-0.474009 -0.432627 -0.112278 76 0 153
0.584844 0.253766 0.112143 76 153 0
-0.341127 0.529705 -0.115957 76 0 153
-0.780459 0.595241 0.104581 76 0 153
-0.379920 0.175605 0.106625 0 127 127
-0.629615 0.448721 -0.115957 76 0 153
-0.037013 -0.113892 0.005548 255 0 0
-0.480790 0.342818 0.113983 0 127 127
-0.330357 0.420465 0.029436 0 255 0
0.198972 -0.135966 0.050662 255 0 0
-0.363128 0.570407 -0.053611 76 0 153
-0.752041 0.015345 -0.115957 76 0 153
-0.313801 -0.316100 -0.039464 153 0 76
0.348425 -0.466767 -0.015773 76 153 0
0.219865 -0.124929 -0.090428 255 0 0
-0.634535 -0.416526 -0.115957 76 0 153
-0.440672 -0.422932 -0.063343 153 76 0
0.383265 0.276869 0.123180 0 127 127
0.678279 -0.424307 -0.115957 76 0 153
0.759942 -0.419253 -0.031371 153 76 0
0.326351 -0.373632 0.080242 76 153 0
0.294576 -0.135966 -0.016235 255 0 0
-0.330357 0.465762 -0.062692 0 255 0
-0.532160 -0.439158 0.112143 0 0 255
0.431354 0.581445 0.093045 0 0 255
-0.710827 0.329608 0.106625 0 127 127
-0.012081 -0.442935 0.112149 0 0 255
-0.755285 -0.443441 -0.097900 204 51 127
0.337388 -0.463728 -0.061213 76 153 0
-0.755285 -0.387124 0.075700 204 51 127
-0.755285 0.132412 0.100999 204 51 127
0.546080 -0.367897 -0.115957 76 0 153
0.093081 -0.369199 -0.115957 76 0 153
-0.376345 -0.105716 0.118142 127 0 127
0.341067 -0.159608 -0.055559 127 127 0
-0.085833 -0.437647 -0.035228 153 76 0
0.773354 0.488890 -0.072297 127 0 127
0.452306 0.480398 0.112143 76 153 0
0.778873 -0.441638 -0.083455 153 0 76
0.105370 -0.437647 0.086050 153 76 0
-0.413052 0.047060 0.112143 0 127 127
-0.035676 -0.254472 0.101105 0 255 0
-0.111817 -0.246337 -0.042289 0 255 0
-0.762644 -0.295203 -0.041123 204 51 127
-0.616501 -0.133913 -0.112278 76 0 153
-0.492491 -0.435200 -0.115957 76 0 153
0.714726 0.556368 0.112143 0 0 255
0.778873 0.266776 -0.105804 153 0 76
0.645589 0.581445 0.084660 0 0 255
-0.660955 0.298527 0.113983 0 127 127
-0.539191 -0.333108 -0.115957 76 0 153
-0.313801 -0.329298 -0.001076 153 0 76
0.644088 0.553851 0.112143 0 0 255
0.743508 0.367753 0.123180 0 127 127
0.472553 0.350157 0.112143 76 153 0
-0.571972 0.133581 -0.115957 76 0 153
-0.013797 -0.135966 -0.004955 255 0 0
0.540106 -0.125793 -0.115957 76 0 153
-0.136429 -0.208054 -0.115957 76 0 153
-0.469442 -0.036580 -0.112278 76 0 153
-0.370604 -0.442190 -0.115957 76 0 153
0.714841 0.118690 -0.112278 76 0 153
0.348425 -0.313234 -0.083756 76 153 0
-0.617952 0.574086 -0.029958 76 0 153
-0.751388 -0.389624 0.112143 204 51 127
-0.552887 0.537105 -0.112278 76 0 153
0.744941 0.150049 0.112143 0 127 127
-0.330357 -0.234287 -0.037267 153 0 76
0.337388 0.185401 0.104759 76 153 0
0.389815 -0.134240 0.110291 76 153 0
-0.313801 -0.442489 0.035318 153 0 76
-0.313801 -0.260464 -0.004067 153 0 76
0.778873 0.511721 0.077739 153 0 76
0.331870 -0.128207 0.076004 76 153 0
0.384871 0.581445 -0.094136 0 0 255
0.554830 0.580289 -0.115957 76 0 153
-0.766323 -0.457851 0.098223 204 51 127
-0.582807 0.217667 -0.115957 76 0 153
0.348425 0.552624 -0.004964 0 0 255
-0.376916 0.449543 -0.115957 76 0 153
-0.328517 0.253894 0.036546 0 255 0
0.339456 -0.470668 0.101106 76 153 0
0.584263 0.406407 0.112143 76 153 0
-0.201957 -0.437647 -0.010922 153 76 0
-0.414765 -0.235302 -0.081145 0 255 0
-0.762036 -0.008299 0.075353 255 0 0
-0.195302 -0.268412 0.109129 0 255 0
-0.324838 0.587954 0.007056 76 0 153
0.337393 -0.008337 0.112143 76 153 0
0.773354 0.242732 -0.048459 127 0 127
-0.485037 0.148832 -0.115957 76 0 153
0.778873 -0.180728 -0.098688 153 0 76
0.607667 0.294480 -0.072859 127 0 127
0.726925 -0.060609 0.123180 0 127 127
0.246088 -0.437647 0.065226 153 76 0
0.458396 0.182485 0.113983 76 153 0
-0.681022 -0.422932 -0.028977 153 76 0
0.767836 0.026518 0.079408 153 0 76
0.769975 0.057248 0.075353 153 0 76
0.546364 0.577765 -0.032436 0 0 255
0.106054 -0.124929 0.099221 255 0 0
0.356960 -0.242660 0.001243 0 127 127
0.773354 0.425524 -0.115463 76 0 153
-0.351883 0.453369 -0.115957 76 0 153
-0.365666 -0.285692 0.123180 127 0 127
-0.560018 -0.389963 0.123180 127 0 127
0.402750 0.426592 0.113983 76 153 0
-0.324838 0.201836 -0.087777 153 0 76
0.409589 0.610877 0.114919 0 0 255
-0.486538 -0.396850 -0.112278 76 0 153
-0.242555 -0.124929 -0.065319 255 0 0
0.180595 -0.113892 0.001031 255 0 0
0.647924 0.374921 0.112143 76 153 0
-0.727118 -0.426611 0.030075 153 76 0
0.326351 -0.360864 -0.025893 76 153 0
0.537704 -0.297939 0.119501 76 0 153
-0.762644 0.502075 -0.038549 255 0 0
-0.009795 -0.164530 -0.112278 76 0 153
0.775194 0.049495 -0.061726 127 0 127
-0.590752 -0.426611 0.071232 153 76 0
-0.401491 0.225816 -0.115957 76 0 153
-0.760804 -0.098861 -0.025677 255 0 0
0.080309 -0.124929 -0.078794 255 0 0
0.457134 -0.246339 -0.055966 0 127 127
0.306710 -0.128228 -0.112219 255 0 0
-0.399313 -0.232147 -0.112278 76 0 153
-0.324838 0.546103 0.072075 153 0 76
0.484946 -0.219819 0.112143 76 153 0
-0.382609 -0.242660 0.095606 127 0 127
-0.494057 0.570407 0.078289 76 0 153
-0.398931 0.168826 0.113983 0 127 127
-0.635627 -0.253697 -0.097040 127 0 127
-0.374505 0.048526 0.107030 0 127 127
-0.626571 0.300150 -0.112278 76 0 153
-0.335875 -0.247525 0.043102 153 0 76
-0.335875 0.458688 0.082881 153 0 76
-0.738672 -0.416226 -0.115957 76 0 153
-0.710533 0.112029 0.119501 127 0 127
0.759173 -0.336562 0.112143 153 0 76
-0.330357 0.080134 -0.012261 0 255 0
-0.144827 -0.257374 -0.047507 0 255 0
0.554534 0.386693 -0.112278 76 0 153
-0.236160 -0.426610 0.089074 153 76 0
-0.501577 -0.330317 0.115822 153 0 76
-0.726350 0.267022 -0.112278 76 0 153
0.123061 -0.246337 -0.099978 0 255 0
0.775194 0.521904 -0.073408 127 0 127
-0.678671 -0.090661 0.113983 0 127 127
-0.458160 0.028574 -0.112278 76 0 153
-0.286331 -0.257374 -0.086767 0 255 0
0.615741 0.283443 -0.084356 127 0 127
0.633935 0.599840 0.122665 0 0 255
0.459149 -0.235302 0.031038 127 127 0
0.466389 0.517724 -0.115957 76 0 153
0.786231 0.594503 0.106470 0 0 255
0.726903 0.438771 -0.112278 76 0 153
-0.515966 -0.253697 -0.100974 127 0 127
0.342907 0.003129 0.045425 127 127 0
-0.472162 0.078216 0.112143 0 127 127
-0.713340 -0.465531 -0.115957 76 0 153
0.337388 -0.164373 -0.092057 76 153 0
-0.313801 -0.168768 0.046790 153 0 76
0.724483 0.575411 0.101106 0 0 255
0.326351 -0.311081 -0.104324 76 153 0
0.773354 0.531017 0.073536 127 0 127
-0.440506 0.574086 -0.046117 76 0 153
-0.377089 -0.242660 -0.097814 0 255 0
0.536190 0.423859 0.112143 76 153 0
0.207545 -0.437647 0.097109 153 76 0
