ply
format ascii 1.0
element vertex 1272
property float x
property float y
property float z
property uchar red
property uchar green
property uchar blue
end_header
-0.335875 -0.173351 0.091337 153 0 76
0.525850 0.177209 0.112143 76 153 0
-0.328517 -0.331423 -0.008438 153 0 76
-0.728206 0.562497 -0.115957 76 0 153
0.632546 -0.017312 0.113983 76 153 0
0.697054 0.012264 -0.115957 76 0 153
-0.651458 -0.047076 -0.115957 76 0 153
0.019203 -0.407950 -0.112278 76 0 153
-0.114177 -0.198906 -0.115957 76 0 153
0.562729 0.035384 -0.112278 76 0 153
-0.554013 -0.070182 0.112143 0 127 127
0.759325 -0.430291 -0.095655 153 76 0
0.778873 -0.381691 0.088715 153 0 76
0.775194 0.354643 0.006729 127 0 127
0.541124 0.574074 0.112143 0 0 255
-0.713896 0.308621 0.109210 127 0 127
-0.103457 -0.268412 0.109233 0 255 0
-0.145918 -0.172618 -0.112278 76 0 153
0.767836 -0.354551 0.073093 153 0 76
-0.419498 0.036895 0.113983 0 127 127
-0.467271 -0.317810 -0.112278 76 0 153
-0.441830 -0.437090 0.112143 0 0 255
0.758770 -0.235302 -0.099041 127 127 0
0.532527 -0.298213 0.115822 76 0 153
0.775618 0.591841 -0.115957 0 0 255
-0.315781 -0.320854 -0.112278 76 0 153
0.237347 -0.437647 0.039942 153 76 0
0.169427 -0.124929 -0.003746 255 0 0
0.562383 -0.034934 -0.115957 76 0 153
-0.283487 -0.124929 -0.112104 76 0 153
-0.409600 0.183268 -0.115957 76 0 153
-0.472018 -0.242660 0.088660 153 0 76
-0.222818 -0.135966 -0.101197 255 0 0
-0.765703 -0.323280 0.112143 204 51 127
0.501173 -0.034730 0.113983 76 153 0
-0.415058 -0.294033 0.115822 153 0 76
0.326351 -0.362928 0.003327 76 153 0
-0.231690 -0.124929 -0.033065 255 0 0
-0.570683 0.361269 0.113983 0 127 127
-0.432253 0.581445 -0.099430 76 0 153
-0.513864 -0.386496 0.112143 127 0 127
-0.569107 -0.370571 0.112143 127 0 127
-0.223122 -0.437647 -0.079856 153 76 0
-0.755285 -0.460611 0.086571 204 51 127
0.375213 -0.309134 -0.112278 76 0 153
0.348425 -0.278992 0.098633 76 153 0
0.344746 -0.386813 -0.062137 76 153 0
0.133996 -0.134617 -0.112219 255 0 0
0.455879 0.604242 0.112143 0 0 255
0.520468 -0.408914 0.112143 0 127 127
-0.766323 0.470952 0.077604 204 51 127
0.356178 -0.306404 0.101106 76 153 0
0.775194 -0.362309 0.038058 153 0 76
-0.361433 0.443697 -0.115957 76 0 153
0.342907 0.094393 -0.060165 127 127 0
0.753519 0.286474 -0.070054 127 0 127
-0.664579 0.157144 0.113983 0 127 127
-0.678015 0.577765 -0.070261 76 0 153
-0.157880 -0.246337 0.012565 0 255 0
0.053559 -0.113892 0.083177 255 0 0
-0.755285 -0.451180 0.027933 204 51 127
-0.655128 -0.418148 -0.112278 76 0 153
0.382899 -0.235302 -0.015384 127 127 0
-0.047517 -0.414475 -0.112278 76 0 153
0.179220 -0.302901 -0.112278 76 0 153
-0.746264 -0.464238 -0.115957 204 51 127
-0.600162 0.227593 0.112143 0 127 127
-0.339554 0.212411 0.121072 127 0 127
0.017824 -0.278606 -0.112278 76 0 153
0.417534 -0.447476 0.112143 0 0 255
-0.699292 0.022776 0.112143 0 127 127
-0.096226 -0.426610 -0.017413 153 76 0
-0.734214 0.570407 0.009866 76 0 153
-0.383981 0.393137 -0.115957 76 0 153
-0.233983 -0.113892 0.005219 255 0 0
0.727427 -0.419253 -0.092949 153 76 0
0.352104 0.533088 0.121077 76 153 0
0.554529 0.247920 -0.112278 76 0 153
-0.425538 -0.044995 0.113983 0 127 127
-0.747563 0.186590 0.101106 127 0 127
-0.609671 0.556532 0.101106 76 0 153
-0.164918 -0.437647 0.024415 153 76 0
0.008554 -0.246337 -0.069710 0 255 0
0.607643 0.389340 0.113983 76 153 0
-0.256810 -0.458790 -0.112278 76 0 153
-0.709101 -0.152399 0.123180 127 0 127
0.326351 -0.402222 0.005892 76 153 0
-0.555385 -0.147641 -0.112278 76 0 153
-0.050136 -0.113892 -0.093344 255 0 0
0.558520 -0.246339 0.060756 0 127 127
-0.145681 -0.260027 -0.115957 0 255 0
-0.461655 0.441262 0.113983 0 127 127
-0.648593 -0.239594 -0.006286 0 255 0
0.645200 -0.394545 0.123180 0 127 127
-0.332196 -0.293352 -0.048194 153 0 76
0.003561 -0.426610 0.084275 153 76 0
0.775194 -0.249451 -0.064541 153 0 76
0.498404 -0.426611 -0.047727 153 76 0
0.545390 0.294480 -0.098208 127 0 127
0.778873 -0.062321 0.103137 153 0 76
0.587437 -0.134582 -0.115957 76 0 153
-0.668190 -0.242660 -0.096125 0 255 0
0.517271 -0.235302 -0.095588 127 127 0
-0.456315 -0.195001 -0.115957 76 0 153
-0.328517 0.221112 -0.069007 0 255 0
-0.710967 -0.101159 0.123180 0 127 127
-0.758177 0.413224 0.067995 255 0 0
-0.471884 0.582059 0.120776 76 0 153
-0.313801 -0.260862 0.046193 0 255 0
-0.365553 0.252757 -0.115957 76 0 153
0.374717 -0.235302 0.026757 127 127 0
-0.540381 0.574086 -0.037616 76 0 153
-0.313801 -0.379301 -0.060169 153 0 76
0.083164 -0.119383 0.112202 255 0 0
-0.382512 -0.350070 0.115822 153 0 76
-0.643918 0.403199 -0.112278 76 0 153
0.773354 0.044816 0.066771 153 0 76
0.574498 0.294480 -0.073935 127 0 127
0.642511 0.024182 0.113983 76 153 0
0.539094 -0.423080 -0.115957 153 76 0
-0.313801 -0.373768 0.052575 153 0 76
0.767836 0.213184 0.078583 127 0 127
0.154672 -0.267729 -0.115957 76 0 153
-0.253940 -0.124929 0.016423 255 0 0
-0.426077 0.405338 -0.115957 76 0 153
-0.591226 -0.024905 0.112143 0 127 127
-0.440849 -0.392530 0.112143 127 0 127
0.422232 0.436993 -0.115957 76 0 153
-0.313801 -0.310626 0.056375 153 0 76
-0.223126 -0.246337 -0.050805 0 255 0
0.573891 -0.253697 0.092704 0 127 127
0.326351 -0.448550 -0.078796 76 153 0
0.778873 0.608972 -0.046877 0 0 255
0.652044 -0.422932 -0.002983 153 76 0
-0.115056 -0.113892 -0.011519 255 0 0
0.258280 -0.135966 0.032699 255 0 0
-0.472432 0.532862 -0.112278 76 0 153
0.437627 0.038412 0.113983 76 153 0
0.203617 -0.246337 -0.069249 0 255 0
-0.195939 -0.135966 -0.024121 255 0 0
0.373640 0.478717 0.112143 0 127 127
-0.762644 -0.030759 0.037847 255 0 0
-0.188058 -0.257374 -0.046727 0 255 0
-0.588429 0.043954 -0.112278 76 0 153
0.348425 0.181917 0.088250 76 153 0
0.426981 0.577765 -0.007064 0 0 255
0.505591 0.135579 -0.115957 76 0 153
0.621750 0.413417 0.113983 76 153 0
0.684558 0.033463 0.113983 76 153 0
0.344746 -0.285207 0.050412 76 153 0
-0.371526 -0.413708 0.112143 127 0 127
-0.762644 -0.394185 0.067584 204 51 127
-0.746826 -0.104773 0.123180 127 0 127
-0.753246 0.036100 -0.115957 76 0 153
-0.607769 0.392203 -0.115957 76 0 153
-0.766323 -0.153156 0.088683 204 51 127
-0.510676 0.422455 -0.115957 76 0 153
0.648691 0.216598 -0.112278 76 0 153
0.337388 0.001953 0.071329 127 127 0
0.768815 -0.216056 -0.112278 76 0 153
0.775194 0.384355 0.068235 127 0 127
0.455063 -0.052390 -0.115957 76 0 153
-0.014077 -0.124929 -0.022547 255 0 0
-0.347505 0.074151 0.123180 127 0 127
0.498369 0.574086 0.045587 0 0 255
0.342907 0.119718 0.053670 127 127 0
0.589050 0.519693 -0.115957 76 0 153
-0.379279 0.449336 0.123180 127 0 127
-0.672599 -0.318344 0.115822 153 0 76
0.344746 -0.327692 0.069097 76 153 0
-0.738708 -0.110196 -0.115957 76 0 153
0.326351 -0.358686 0.045080 76 153 0
-0.448472 0.554398 -0.112278 76 0 153
0.442917 0.055674 -0.115957 76 0 153
-0.566756 0.581445 0.110929 76 0 153
-0.001224 -0.446539 0.112147 0 0 255
0.778873 -0.266335 0.070992 153 0 76
-0.745040 0.098785 -0.115957 76 0 153
-0.373839 -0.235302 -0.013287 0 255 0
-0.324838 -0.270368 -0.034210 153 0 76
0.146264 -0.124929 0.026234 255 0 0
-0.367310 0.529177 0.112143 127 0 127
-0.371856 -0.030916 0.123180 127 0 127
0.407356 0.283443 -0.109484 127 0 127
0.341341 -0.409303 0.075353 76 153 0
0.717751 0.289278 -0.072496 127 0 127
0.348425 -0.105179 -0.095093 76 153 0
0.738486 -0.430291 -0.107988 153 76 0
-0.627627 -0.039414 0.112143 0 127 127
-0.335875 0.300758 -0.102056 76 0 153
0.348425 -0.427527 -0.012899 153 76 0
0.594769 0.068158 -0.112278 76 0 153
-0.643187 0.560745 -0.115957 76 0 153
-0.324838 -0.363611 -0.111761 153 0 76
0.722923 0.053433 0.106625 76 153 0
-0.328517 -0.158428 -0.066236 0 255 0
-0.755285 -0.243845 0.099509 127 0 127
-0.330357 -0.024494 0.057379 153 0 76
-0.467280 0.175449 0.113983 0 127 127
0.767836 -0.001010 0.095407 153 0 76
-0.661273 0.294480 -0.108634 127 127 0
-0.762644 -0.118480 -0.005132 255 0 0
0.638991 -0.253697 0.071877 0 127 127
0.625863 -0.253697 -0.108875 0 127 127
-0.608139 0.385009 0.112143 0 127 127
-0.050873 -0.113892 0.098654 255 0 0
-0.602529 -0.250018 -0.031869 127 0 127
-0.341419 0.146612 0.101106 127 0 127
0.740516 0.570407 -0.023912 0 0 255
0.337388 -0.020230 -0.112400 76 153 0
-0.328517 -0.434345 0.016698 153 0 76
0.720331 0.574086 0.068164 0 0 255
-0.249582 -0.257374 -0.084640 0 255 0
0.252332 -0.246338 0.107862 0 255 0
0.337388 0.121898 0.082894 76 153 0
-0.766323 0.252701 0.071513 204 51 127
-0.115348 -0.426610 -0.077355 153 76 0
0.645338 -0.385437 -0.112278 76 0 153
-0.368051 -0.422932 -0.016033 153 76 0
0.335358 -0.124929 0.057364 76 153 0
0.516628 0.265877 -0.112278 76 0 153
0.298871 -0.246337 -0.041586 0 255 0
0.460062 -0.419253 -0.083306 153 76 0
0.729734 0.172813 0.123180 0 127 127
-0.150459 -0.134306 -0.112219 255 0 0
0.326351 -0.301095 -0.043503 76 153 0
0.499498 -0.317748 -0.112278 76 0 153
0.337388 -0.322602 0.100544 76 153 0
-0.451722 -0.235302 -0.088555 0 255 0
0.787570 0.582170 0.059852 0 0 255
0.634218 0.070600 -0.112278 76 0 153
0.341067 -0.257300 -0.014691 76 153 0
0.341067 0.383793 -0.039277 127 127 0
-0.648526 -0.422932 0.045193 153 76 0
-0.018583 -0.378985 -0.115957 76 0 153
0.535388 0.482163 -0.112278 76 0 153
-0.347656 -0.235302 -0.039421 0 255 0
0.592750 0.362641 -0.112278 76 0 153
0.691545 -0.250018 -0.001772 127 127 0
0.767836 -0.106874 -0.097759 153 0 76
-0.324838 0.258145 -0.106375 153 0 76
0.382917 0.577765 -0.007434 0 0 255
-0.319320 -0.249417 0.030568 0 255 0
-0.662331 0.055179 -0.112278 76 0 153
-0.127256 -0.113892 0.032210 255 0 0
0.373183 0.203442 -0.112278 76 0 153
-0.508515 0.381821 -0.115957 76 0 153
0.341067 0.312809 0.060126 127 127 0
-0.755285 -0.425734 -0.106034 76 0 153
-0.762644 0.204166 -0.025779 255 0 0
0.394790 0.574086 0.027101 0 0 255
0.749440 -0.279689 0.104816 0 127 127
0.685791 0.205494 -0.115957 76 0 153
-0.729446 -0.315038 0.112143 127 0 127
0.773354 0.390920 0.028071 127 0 127
0.136284 -0.426610 -0.023149 153 76 0
-0.251502 -0.135966 -0.094442 255 0 0
-0.741677 0.570407 0.047647 76 0 153
0.710549 0.570407 -0.095949 0 0 255
-0.226207 -0.426610 -0.039344 153 76 0
0.622743 0.562273 -0.115957 76 0 153
0.778873 -0.437481 -0.107045 76 0 153
-0.636308 0.440875 -0.115957 76 0 153
0.466712 -0.253697 0.084219 0 127 127
-0.613347 0.010338 -0.115957 76 0 153
0.498268 0.512126 -0.112278 76 0 153
-0.755285 0.089297 -0.092814 255 0 0
0.383262 -0.218725 -0.115957 76 0 153
-0.641562 -0.326193 -0.115957 76 0 153
-0.371629 0.315550 -0.115957 76 0 153
0.064038 -0.246337 0.014089 0 255 0
0.759510 0.156299 0.112143 153 0 76
-0.383308 0.294480 -0.099620 127 127 0
0.573517 0.207428 0.113983 76 153 0
0.020733 -0.145762 0.112140 255 0 0
-0.766323 0.560599 -0.011325 76 0 153
0.514394 0.041174 0.113983 76 153 0
-0.637557 0.574086 0.047306 76 0 153
-0.701457 0.237143 -0.115957 76 0 153
0.773354 0.000386 0.016957 127 0 127
-0.632490 -0.242660 -0.094196 0 255 0
-0.364721 0.344373 0.123180 127 0 127
-0.441111 -0.109386 0.113983 0 127 127
0.449631 -0.251241 0.101106 0 127 127
0.051536 -0.135966 0.084234 255 0 0
-0.567590 -0.439212 0.101106 0 0 255
0.383105 -0.419253 -0.111290 153 76 0
0.497006 0.224175 -0.112278 76 0 153
0.157137 -0.140994 0.112140 255 0 0
0.704136 -0.448592 0.101106 0 0 255
-0.354270 0.397681 0.108054 153 0 76
0.744919 -0.253697 0.061688 0 127 127
0.767836 -0.068265 0.085860 153 0 76
-0.728327 -0.250018 0.050356 127 0 127
-0.501185 -0.433558 -0.115957 76 0 153
0.539695 -0.206270 0.112143 76 153 0
0.726056 -0.310666 -0.115957 76 0 153
0.773603 -0.478118 -0.064458 153 0 76
-0.434459 -0.235302 -0.013968 0 255 0
0.342110 0.557912 0.101106 76 153 0
0.238743 -0.426610 0.013960 153 76 0
0.735582 0.114058 -0.115957 76 0 153
-0.596600 0.325968 0.113983 0 127 127
0.520919 -0.242660 0.069005 0 127 127
0.725623 -0.181320 0.106625 76 153 0
0.337388 0.329540 0.076672 76 153 0
0.342907 0.138041 -0.047802 127 127 0
-0.381102 0.195648 -0.112278 76 0 153
0.470289 0.570407 0.114535 0 0 255
0.488714 0.520228 0.123180 0 127 127
0.716118 0.147850 0.113983 76 153 0
0.549621 0.542369 0.123180 0 127 127
-0.283236 -0.113892 0.070030 255 0 0
0.470773 -0.430291 0.087407 153 76 0
-0.287034 -0.426610 0.053720 153 76 0
-0.681846 0.202636 -0.115957 76 0 153
-0.504252 -0.257050 -0.115957 76 0 153
-0.318199 -0.229038 0.112143 153 0 76
0.778873 -0.474799 -0.100693 153 0 76
0.308474 -0.389036 -0.112278 76 0 153
0.275471 -0.113892 0.043514 255 0 0
-0.762644 -0.116262 0.055701 255 0 0
-0.328517 0.397341 -0.068882 0 255 0
0.773354 0.434379 0.048721 127 0 127
0.019695 -0.426610 -0.024581 153 76 0
0.130997 -0.268244 -0.112278 76 0 153
-0.664189 0.291461 0.113983 0 127 127
0.437797 -0.011260 -0.112278 76 0 153
-0.087281 -0.426610 0.096157 153 76 0
-0.306162 -0.318100 0.101106 153 0 76
-0.105370 -0.152566 -0.115957 76 0 153
-0.104781 -0.257374 -0.099762 0 255 0
0.297995 -0.135966 0.000144 255 0 0
0.560917 -0.430291 0.076983 153 76 0
-0.537653 0.572870 0.101106 76 0 153
0.108646 -0.231547 -0.115957 76 0 153
-0.509166 -0.216277 0.113983 0 127 127
0.767836 -0.463071 0.066787 153 0 76
0.734371 -0.235302 -0.086763 127 127 0
-0.100939 -0.135966 0.036580 255 0 0
0.041831 -0.426610 -0.019037 153 76 0
0.078176 -0.426610 0.020830 153 76 0
-0.483055 0.110568 -0.112278 76 0 153
0.462894 0.527926 -0.112278 76 0 153
-0.466996 0.572739 -0.112278 76 0 153
0.502486 0.595986 0.119501 0 0 255
0.366643 0.570407 -0.044243 0 0 255
0.773354 0.217285 0.017066 127 0 127
0.279218 -0.261270 -0.112278 76 0 153
-0.741762 -0.242660 -0.109704 76 0 153
0.470722 0.045876 -0.115957 76 0 153
-0.564452 0.025293 -0.115957 76 0 153
-0.420280 -0.357903 0.115822 153 0 76
0.645522 0.234993 0.113983 76 153 0
-0.330357 0.340051 -0.072094 0 255 0
-0.642569 0.574086 -0.059254 76 0 153
0.451905 0.079086 0.113983 76 153 0
-0.689816 0.114929 0.113983 0 127 127
0.337388 -0.368007 -0.101018 76 153 0
0.340694 0.053163 -0.115957 76 153 0
0.656736 -0.422932 -0.026996 153 76 0
0.646756 -0.300404 0.119501 76 0 153
0.753415 0.476518 -0.112278 76 0 153
-0.408928 0.516581 0.123180 127 0 127
0.181141 -0.135966 -0.016296 255 0 0
-0.423808 -0.091831 0.112143 0 127 127
0.342907 0.023504 0.059868 127 127 0
0.775194 -0.050289 0.032642 127 0 127
0.586689 0.574086 -0.047960 0 0 255
0.710884 -0.112222 0.112143 76 153 0
-0.441418 0.294480 -0.086333 127 127 0
0.194272 -0.281878 -0.112278 76 0 153
0.083587 -0.257374 0.004780 0 255 0
0.342907 -0.170305 0.018328 76 153 0
0.292353 -0.437647 -0.009970 153 76 0
0.669562 -0.232180 0.123180 76 153 0
-0.020283 -0.343540 -0.115957 76 0 153
0.706932 0.534857 -0.112278 76 0 153
-0.313801 -0.455923 0.016861 153 0 76
-0.456928 0.391343 0.112143 0 127 127
-0.758964 -0.336992 -0.066797 204 51 127
-0.428780 -0.321737 -0.112278 76 0 153
0.277270 -0.246337 0.050469 0 255 0
-0.197056 -0.379272 -0.115957 76 0 153
-0.492189 0.015753 -0.115957 76 0 153
0.342907 0.106358 0.033208 127 127 0
-0.117128 -0.426610 -0.019424 153 76 0
0.448920 -0.437167 0.112143 0 0 255
-0.330357 0.311049 0.000117 0 255 0
0.294074 -0.144232 0.101098 255 0 0
-0.755285 0.531077 0.085420 204 51 127
0.326351 -0.426341 0.027438 76 153 0
0.341067 0.427062 0.024234 127 127 0
-0.427983 0.525527 -0.112278 76 0 153
0.648914 -0.422932 0.036153 153 76 0
-0.498979 -0.356329 -0.112278 76 0 153
-0.605558 -0.158752 -0.115957 76 0 153
-0.180134 -0.113892 -0.022203 255 0 0
-0.469186 -0.279368 0.115822 153 0 76
0.773354 0.205718 -0.026666 127 0 127
0.775194 0.351172 -0.060799 127 0 127
0.484768 0.089995 0.112143 76 153 0
0.612418 0.528200 0.112143 0 127 127
-0.326193 0.264672 0.112143 153 0 76
0.775194 0.059299 -0.058139 127 0 127
-0.313801 -0.476209 -0.090278 153 0 76
0.079193 -0.124929 -0.048184 255 0 0
0.557454 -0.228211 -0.115957 76 0 153
0.778873 0.388417 -0.093063 153 0 76
0.767836 -0.150747 -0.083822 127 0 127
0.606221 0.539422 -0.112278 76 0 153
0.510466 0.580697 -0.115957 76 0 153
-0.231331 -0.257374 0.028689 0 255 0
0.520539 0.524831 0.112143 0 127 127
-0.494226 0.035109 0.113983 0 127 127
-0.327577 0.463239 -0.115957 76 0 153
-0.758964 -0.266123 -0.043698 204 51 127
-0.766323 -0.103498 0.091517 204 51 127
0.709304 -0.025155 -0.115957 76 0 153
-0.315006 0.610877 0.069879 153 0 76
0.767836 -0.272245 -0.084370 153 0 76
-0.020020 -0.135966 0.093777 255 0 0
0.337701 0.080450 -0.082846 76 153 0
-0.335875 -0.287123 0.077967 153 0 76
-0.187532 -0.135966 -0.084970 255 0 0
0.341067 0.524652 -0.009525 127 127 0
-0.653762 0.250781 0.113983 0 127 127
0.756952 -0.337326 0.101106 153 0 76
0.412440 0.581445 0.084508 0 0 255
0.547785 -0.430291 -0.099534 153 76 0
-0.636110 -0.426611 -0.016101 153 76 0
0.228601 -0.246337 -0.038723 0 255 0
-0.405098 -0.409056 -0.115957 76 0 153
-0.755285 0.515304 -0.096678 204 51 127
0.462600 0.581445 0.094603 0 0 255
-0.358766 0.134389 0.123180 127 0 127
-0.303998 0.610877 -0.082721 76 0 153
-0.081211 -0.476908 -0.112278 76 0 153
-0.335217 0.497462 0.101106 153 0 76
-0.319320 -0.432227 -0.073718 153 0 76
0.614153 -0.250018 0.011290 0 127 127
0.019702 -0.113892 -0.068245 255 0 0
-0.195380 -0.268411 0.102301 0 255 0
0.474137 0.263531 0.112143 76 153 0
0.348425 0.594734 -0.110260 76 153 0
-0.742958 0.162597 0.123180 127 0 127
-0.330357 -0.201435 0.006248 0 255 0
0.778873 0.186162 0.109103 153 0 76
0.679766 -0.250018 -0.045219 0 127 127
-0.747046 -0.146676 0.112143 204 51 127
0.767836 0.063207 -0.097510 153 0 76
0.217488 -0.171941 -0.112278 76 0 153
0.344465 0.055824 0.101106 76 153 0
0.738152 0.275418 0.123180 0 127 127
0.690563 -0.294917 0.115822 76 0 153
-0.360720 -0.356964 -0.115957 76 0 153
-0.374505 -0.134620 0.110785 0 127 127
0.767836 -0.458663 0.023089 153 0 76
0.587740 0.554204 0.112143 0 0 255
0.241513 -0.113892 -0.087909 255 0 0
0.342907 0.084097 0.038413 127 127 0
0.733715 0.539204 -0.112278 76 0 153
-0.152858 -0.124929 0.057822 255 0 0
0.208616 -0.246337 -0.034029 0 255 0
0.773354 0.324810 -0.032563 127 0 127
-0.217277 -0.113892 0.088133 255 0 0
0.335001 -0.420395 -0.115898 76 153 0
0.396990 0.587577 0.123961 0 0 255
0.670004 0.565043 -0.115957 0 0 255
-0.760804 0.169545 -0.065286 255 0 0
-0.741978 0.570407 -0.012518 76 0 153
0.392481 0.570407 -0.099184 0 0 255
-0.025259 -0.113892 0.040232 255 0 0
0.473334 0.017748 0.113983 76 153 0
0.767836 0.570078 -0.038691 0 0 255
-0.435835 -0.247845 0.101106 127 0 127
-0.593957 0.301774 -0.115957 76 0 153
-0.328517 0.426470 -0.059459 0 255 0
0.358130 -0.426611 -0.081032 153 76 0
-0.462835 0.423706 -0.112278 76 0 153
-0.338912 0.165457 -0.112278 76 0 153
0.001167 -0.190130 -0.115957 76 0 153
-0.719251 0.609347 0.136057 76 0 153
0.757692 -0.253697 -0.087597 0 127 127
0.620729 0.577765 -0.079136 0 0 255
-0.667343 -0.227155 0.112143 0 127 127
0.378519 0.071310 0.123180 0 127 127
0.360920 -0.253697 0.035636 76 153 0
0.594468 -0.277150 -0.115957 76 0 153
-0.399986 -0.075682 -0.112278 76 0 153
0.187670 -0.395543 -0.115957 76 0 153
-0.766323 -0.466057 -0.041579 204 51 127
-0.607914 0.426400 0.112143 0 127 127
0.326351 -0.349971 -0.101757 76 153 0
-0.324838 -0.007634 0.094119 153 0 76
-0.324838 0.140333 -0.093760 153 0 76
0.474426 -0.458994 0.101106 0 0 255
-0.604674 -0.246339 -0.072280 127 0 127
0.407017 0.574086 0.044198 0 0 255
0.747290 0.570407 0.075694 0 0 255
0.141257 -0.426610 0.033424 153 76 0
-0.306125 -0.423037 0.112143 153 0 76
-0.472891 0.544654 0.119868 127 0 127
0.763499 0.517801 0.123180 0 127 127
0.223616 -0.257374 -0.003892 0 255 0
0.673414 0.075956 -0.115957 76 0 153
-0.562168 0.319688 -0.115957 76 0 153
0.502210 -0.253697 -0.088892 0 127 127
0.771515 -0.290571 0.058967 153 0 76
-0.330357 0.302397 -0.072746 0 255 0
0.481058 0.577765 -0.025547 0 0 255
-0.567178 -0.167509 0.112143 0 127 127
0.671589 -0.101519 -0.115957 76 0 153
0.636818 0.385102 -0.112278 76 0 153
-0.763242 -0.227944 0.011145 255 0 0
-0.330357 0.121853 0.028788 0 255 0
-0.608849 -0.263929 -0.115957 76 0 153
-0.518732 0.253011 0.113983 0 127 127
0.778873 -0.238861 0.074069 0 127 127
-0.353837 0.032665 0.123180 127 0 127
-0.755285 0.324346 0.075971 255 0 0
0.214914 -0.257374 -0.099538 0 255 0
0.773354 0.393158 -0.049484 127 0 127
-0.556836 -0.235302 -0.039545 127 0 127
-0.335875 -0.246153 0.096609 127 0 127
0.506907 -0.422932 -0.029951 153 76 0
-0.335875 -0.250677 0.073105 153 0 76
0.325794 -0.146414 0.112143 76 153 0
0.367067 0.283516 -0.115957 127 0 127
0.589575 -0.250018 0.032659 0 127 127
-0.770538 0.605029 -0.115957 204 51 127
-0.347047 0.087681 -0.115957 76 0 153
-0.153495 -0.124929 -0.061393 255 0 0
0.616162 0.502275 0.112143 76 153 0
-0.241692 -0.370169 -0.112278 76 0 153
0.614575 -0.430291 0.085071 153 76 0
0.266597 -0.135966 -0.077491 255 0 0
0.555910 0.287828 0.112143 76 153 0
-0.412442 -0.426611 -0.034309 153 76 0
-0.329469 -0.251923 -0.090204 153 0 76
0.399313 0.095922 -0.112278 76 0 153
-0.332196 -0.409172 0.004433 153 0 76
-0.324838 -0.418183 -0.036484 153 0 76
-0.328517 -0.033711 -0.056928 0 255 0
-0.712442 0.067899 0.106625 0 127 127
0.033659 -0.257374 -0.015618 0 255 0
0.341067 0.059289 -0.050814 127 127 0
-0.404761 -0.422932 0.026241 153 76 0
-0.092460 -0.113892 -0.060099 255 0 0
-0.324838 -0.031034 0.094832 153 0 76
-0.313801 -0.407494 0.021684 153 0 76
0.427841 -0.210406 0.113983 76 153 0
0.187858 -0.113892 0.013927 255 0 0
0.593020 -0.426611 0.055612 153 76 0
0.052851 -0.426610 -0.038684 153 76 0
-0.755285 0.325280 0.099388 204 51 127
-0.707819 0.581445 -0.099463 76 0 153
-0.581335 -0.266826 0.123180 153 0 76
0.493792 -0.048540 -0.112278 76 0 153
0.413956 -0.246339 0.016501 0 127 127
-0.392965 -0.430291 -0.108648 76 0 153
0.778873 0.152117 -0.100879 153 0 76
-0.441871 -0.250018 0.011834 127 0 127
0.405311 -0.192222 -0.115957 76 0 153
0.413794 -0.242660 0.068213 0 127 127
-0.398963 0.077318 0.113983 0 127 127
-0.027254 -0.246337 -0.023644 0 255 0
-0.724881 0.035630 0.112143 127 0 127
-0.304241 -0.113892 -0.083121 255 0 0
0.751563 -0.235302 0.031500 127 127 0
0.513848 -0.430291 0.079487 153 76 0
-0.572310 0.574086 0.046894 76 0 153
-0.762644 0.061402 -0.034055 255 0 0
-0.721964 -0.423853 0.112143 0 0 255
-0.481162 0.353194 -0.115957 76 0 153
0.699921 0.363715 -0.112278 76 0 153
-0.690062 -0.258360 0.112143 153 0 76
-0.760804 -0.001677 -0.022623 255 0 0
0.144042 -0.113892 0.069543 255 0 0
0.344746 -0.279797 -0.071323 76 153 0
-0.091630 -0.124929 0.087417 255 0 0
0.512670 0.380633 -0.115957 76 0 153
-0.586302 0.086306 0.113983 0 127 127
0.722726 -0.192091 0.123180 0 127 127
-0.335875 0.578186 0.078766 153 0 76
0.598357 -0.235302 -0.089538 127 127 0
-0.502400 -0.092327 0.113983 0 127 127
-0.762644 0.435278 -0.028773 255 0 0
-0.762644 0.192689 0.014277 255 0 0
0.344746 -0.308252 0.067789 76 153 0
-0.335875 0.242403 0.082822 153 0 76
-0.330357 0.468929 -0.046166 0 255 0
-0.505334 -0.426611 0.019587 153 76 0
0.728891 0.208314 0.106625 76 153 0
0.358017 0.060298 0.123180 0 127 127
0.369000 0.570407 0.032418 0 0 255
0.703357 -0.189640 0.113983 76 153 0
0.784099 0.576346 0.117370 0 0 255
-0.480239 -0.459133 0.104822 0 0 255
-0.178139 -0.437647 0.087083 153 76 0
0.214859 -0.224930 -0.115957 76 0 153
-0.313801 -0.323231 -0.076284 153 0 76
-0.335875 -0.445314 -0.068964 153 0 76
0.352104 0.369707 0.114882 0 127 127
-0.760804 0.242402 -0.068283 255 0 0
-0.354273 -0.203738 -0.115957 76 0 153
0.638234 -0.061227 -0.115957 76 0 153
0.342907 0.152528 0.064625 127 127 0
-0.713375 0.240088 0.112143 127 0 127
-0.747360 0.059732 0.112143 127 0 127
-0.597111 -0.422932 -0.005753 153 76 0
0.462406 0.186837 0.112143 76 153 0
-0.049964 -0.257374 0.022659 0 255 0
0.061460 -0.274941 -0.115957 76 0 153
-0.192824 -0.122522 0.112202 255 0 0
0.703295 0.524293 0.112143 0 127 127
0.441229 0.289279 -0.115957 127 0 127
0.636528 0.499358 0.112143 76 153 0
0.468905 -0.341726 -0.112278 76 0 153
-0.766323 0.605726 -0.066058 76 0 153
-0.704845 0.426131 -0.112278 76 0 153
0.430978 0.231646 -0.115957 76 0 153
0.608277 0.570407 0.095001 0 0 255
0.133602 -0.246337 0.043987 0 255 0
-0.760804 0.453799 0.009065 255 0 0
-0.676790 -0.419253 0.071580 153 76 0
-0.325776 -0.455298 0.112143 153 0 76
0.617569 0.010389 -0.112278 76 0 153
-0.306490 -0.135966 0.025818 255 0 0
-0.489503 0.561139 0.112143 76 0 153
-0.523677 -0.253697 0.098032 153 0 76
0.534030 0.570407 -0.095903 0 0 255
0.131342 -0.460008 0.103858 0 0 255
-0.394351 -0.426611 0.058497 153 76 0
-0.664895 -0.235302 -0.067806 0 255 0
0.015018 -0.135966 0.077292 255 0 0
0.544570 -0.264226 0.119501 76 0 153
0.519811 -0.398320 -0.112278 76 0 153
-0.566564 -0.426611 0.049294 153 76 0
-0.332196 -0.407608 0.040536 153 0 76
-0.541426 -0.452356 0.101106 0 0 255
-0.370352 -0.253697 -0.098417 0 255 0
0.418799 0.101652 -0.112278 76 0 153
0.194231 -0.135966 -0.052661 255 0 0
0.326351 -0.218758 -0.080571 76 153 0
-0.547969 0.581445 0.073420 76 0 153
-0.396958 -0.386407 0.112143 127 0 127
0.348425 -0.041135 -0.087406 76 153 0
0.342907 0.281908 0.004534 127 127 0
-0.755285 0.089906 0.090877 204 51 127
-0.511181 0.581445 0.085964 76 0 153
0.341067 -0.193083 0.054675 127 127 0
0.555967 -0.003788 -0.115957 76 0 153
-0.613902 -0.246339 0.060694 127 0 127
0.396571 0.141304 -0.112278 76 0 153
-0.672049 0.421315 0.112143 0 127 127
-0.746214 -0.295617 -0.115957 76 0 153
0.363856 0.599840 0.122853 0 0 255
-0.766323 0.129681 -0.096503 204 51 127
0.644510 0.570407 0.087859 0 0 255
-0.660601 -0.422932 -0.077544 153 76 0
-0.086706 -0.171233 -0.115957 76 0 153
-0.741099 0.570407 0.089747 76 0 153
0.148248 -0.412218 -0.112278 76 0 153
-0.169918 -0.124929 -0.002937 255 0 0
0.348425 0.240759 0.069532 127 127 0
0.476817 0.537296 0.103552 0 0 255
-0.529462 -0.430291 0.082944 153 76 0
0.282873 -0.426610 0.067745 153 76 0
0.539870 0.313793 -0.115957 76 0 153
-0.335875 -0.146827 0.100704 153 0 76
-0.766323 0.414759 0.086594 204 51 127
-0.211785 -0.283879 -0.115957 76 0 153
-0.730959 -0.104184 0.112143 127 0 127
-0.541445 -0.244057 -0.112278 127 0 127
0.602812 0.581445 -0.107070 0 0 255
-0.036707 -0.135966 -0.000327 255 0 0
-0.098785 -0.135966 -0.048820 255 0 0
-0.479298 -0.422932 0.047082 153 76 0
0.694442 -0.080286 0.112143 76 153 0
0.609177 -0.434077 0.112143 0 0 255
-0.218011 -0.124929 -0.047430 255 0 0
0.348425 0.108207 -0.102669 76 0 153
-0.566164 0.495628 0.112143 0 127 127
0.040936 -0.264701 0.112145 0 255 0
-0.328517 0.383337 -0.015041 0 255 0
-0.648048 0.427490 0.113983 0 127 127
-0.528984 0.185572 0.113983 0 127 127
0.753294 0.447373 -0.112278 76 0 153
0.773354 0.526184 -0.057437 127 0 127
0.674304 0.112646 -0.115957 76 0 153
-0.336965 0.581445 -0.023780 76 0 153
-0.762644 0.037761 -0.039667 255 0 0
0.368104 -0.432406 0.112143 76 153 0
0.389599 -0.426611 0.058759 153 76 0
-0.330471 0.589349 0.101106 76 0 153
0.731922 0.432066 -0.112278 76 0 153
0.341067 0.307844 -0.012827 127 127 0
0.775194 0.499028 -0.021828 127 0 127
0.618644 0.126252 -0.112278 76 0 153
0.764108 0.356055 -0.112278 76 0 153
0.681725 -0.478118 -0.115808 76 0 153
0.382697 -0.458693 0.101106 0 0 255
0.359379 0.189728 0.123180 0 127 127
0.584030 0.561672 -0.115957 76 0 153
-0.530089 0.610877 0.133784 76 0 153
0.555728 -0.100501 -0.115957 76 0 153
0.248252 -0.128455 -0.115957 76 0 153
0.337388 0.591489 0.100119 0 0 255
-0.150801 -0.246337 -0.054282 0 255 0
-0.395923 0.581445 0.101549 76 0 153
0.342907 0.499203 0.030915 127 127 0
-0.726073 -0.067347 -0.112278 76 0 153
0.082643 -0.426618 -0.115957 76 0 153
0.349520 0.260170 -0.115957 76 0 153
-0.091754 -0.246337 -0.060748 0 255 0
0.775194 0.143615 -0.064173 127 0 127
-0.520234 -0.250018 -0.009802 127 0 127
0.380839 0.035941 -0.115957 76 0 153
0.180219 -0.267145 0.101103 0 255 0
0.421381 0.134763 -0.112278 76 0 153
0.519134 -0.235302 0.024307 127 127 0
0.108605 -0.272307 -0.115957 76 0 153
0.356172 0.002813 0.123180 0 127 127
-0.398402 -0.246339 -0.003524 127 0 127
0.032359 -0.426610 0.065487 153 76 0
-0.588643 -0.436045 0.112143 0 0 255
-0.712912 -0.399857 -0.115957 76 0 153
0.265954 -0.437647 -0.019481 153 76 0
-0.345610 0.314159 0.101106 153 0 76
0.364983 -0.025309 0.101106 76 153 0
0.409252 -0.389062 0.112143 0 0 255
0.551330 -0.346070 -0.112278 76 0 153
0.657433 0.001757 -0.115957 76 0 153
-0.310233 0.594498 -0.115957 76 0 153
0.244830 -0.124929 0.060668 255 0 0
0.750996 0.372027 0.101106 153 0 76
-0.332196 -0.311439 -0.063494 153 0 76
0.743316 0.131893 0.112143 0 127 127
-0.578897 -0.131520 -0.115957 76 0 153
0.342907 0.457825 -0.042375 127 127 0
-0.176283 -0.257374 0.072341 0 255 0
0.326351 -0.330242 0.005926 76 153 0
-0.081072 -0.437647 -0.007753 153 76 0
-0.683308 0.528364 0.112143 127 0 127
0.775194 -0.175662 -0.007236 127 0 127
0.195616 -0.246337 0.066510 0 255 0
-0.612452 -0.357567 0.115822 127 0 127
-0.273863 -0.135966 0.100672 255 0 0
0.383441 0.150179 0.123180 0 127 127
-0.762644 -0.315641 -0.034267 204 51 127
0.535463 -0.390068 0.123180 0 127 127
-0.709870 -0.235302 0.018813 0 255 0
-0.470246 0.574086 -0.064677 76 0 153
-0.380314 -0.200913 0.112143 0 127 127
0.341067 -0.269153 0.006646 76 153 0
0.547036 0.436951 -0.112278 76 0 153
0.027809 -0.446437 -0.112278 76 0 153
0.710613 0.188107 0.112143 76 153 0
0.326351 -0.205872 -0.006820 76 153 0
-0.746520 0.361514 -0.115957 76 0 153
-0.739842 -0.388474 0.123180 204 51 127
-0.141990 -0.257374 -0.086894 0 255 0
0.291795 -0.124929 0.033084 255 0 0
0.360271 0.508719 0.112143 76 153 0
0.236845 -0.113892 -0.051694 255 0 0
0.491869 -0.250628 0.112143 76 153 0
-0.113644 -0.113892 0.095525 255 0 0
-0.588881 -0.253697 -0.087743 127 0 127
-0.324838 0.030131 0.085042 153 0 76
0.584697 0.331330 0.112143 76 153 0
-0.432808 -0.382590 -0.112278 76 0 153
0.525838 -0.077201 -0.112278 76 0 153
0.157365 -0.235896 -0.112278 76 0 153
0.668196 0.199000 0.112143 76 153 0
-0.051048 -0.426610 -0.053786 153 76 0
0.165438 -0.334491 -0.115957 76 0 153
0.156243 -0.292034 -0.112278 76 0 153
-0.328517 -0.146005 0.070039 153 0 76
-0.766323 0.306757 0.109951 204 51 127
0.519293 -0.293203 -0.112278 76 0 153
-0.704205 -0.156340 -0.112278 76 0 153
-0.561670 0.173709 -0.115957 76 0 153
-0.743694 0.603347 0.112143 76 0 153
0.400298 -0.018310 -0.115957 76 0 153
0.016254 -0.246337 0.049631 0 255 0
0.503185 -0.249518 -0.115957 76 0 153
-0.137015 -0.135966 0.011656 255 0 0
-0.487929 -0.238391 0.033084 0 255 0
0.545286 -0.246339 -0.075700 0 127 127
-0.405802 0.496255 -0.115957 76 0 153
0.015230 -0.257374 0.028433 0 255 0
-0.502305 -0.091062 -0.115957 76 0 153
0.366821 0.422296 0.106279 0 127 127
0.775194 -0.288447 -0.077140 153 0 76
-0.537765 0.184374 -0.115957 76 0 153
-0.448112 0.041883 -0.112278 76 0 153
-0.708802 0.452054 -0.112278 76 0 153
0.185655 -0.437647 -0.019692 153 76 0
0.326351 -0.295467 0.065959 76 153 0
0.690885 0.120498 0.112143 76 153 0
0.203182 -0.124929 -0.095526 255 0 0
-0.077163 -0.257374 -0.049103 0 255 0
0.390617 -0.049845 -0.112278 76 0 153
0.306260 -0.135966 0.058994 255 0 0
0.357724 0.570407 0.013962 0 0 255
-0.762644 -0.118524 0.015211 255 0 0
-0.760804 -0.204187 -0.071987 255 0 0
-0.588208 -0.218104 0.113983 0 127 127
-0.235703 -0.135966 -0.017469 255 0 0
-0.762644 -0.271972 0.075281 204 51 127
-0.627469 0.133599 -0.115957 76 0 153
0.542703 0.055485 0.112143 76 153 0
0.388691 -0.271457 0.112143 76 0 153
0.247738 -0.268411 0.102578 0 255 0
-0.424321 -0.243631 0.119501 153 0 76
-0.059259 -0.264745 0.101103 0 255 0
0.514684 0.577765 0.009831 0 0 255
-0.569960 0.178459 0.112143 0 127 127
0.694637 -0.223053 -0.115957 76 0 153
0.159013 -0.203506 -0.112278 76 0 153
0.775194 0.029408 0.006704 127 0 127
0.424224 -0.426611 0.000313 153 76 0
-0.521251 0.109730 0.112143 0 127 127
-0.567408 0.604158 0.132629 76 0 153
-0.525215 0.574086 -0.004234 76 0 153
0.671975 0.393190 -0.115957 76 0 153
0.138212 -0.113892 -0.047887 255 0 0
0.057467 -0.124929 -0.021175 255 0 0
0.638728 -0.340416 0.119501 76 0 153
-0.328517 0.341314 -0.032306 0 255 0
0.773354 0.244928 0.061943 127 0 127
0.273718 -0.339277 -0.115957 76 0 153
0.253057 -0.211299 -0.115957 76 0 153
-0.306342 -0.257374 -0.027090 0 255 0
-0.549317 0.351119 -0.115957 76 0 153
-0.335875 -0.108595 0.076198 0 255 0
-0.528240 -0.419253 -0.092751 153 76 0
0.026356 -0.425757 -0.115957 76 0 153
-0.718843 -0.253697 -0.090618 127 0 127
-0.762948 0.537296 0.017735 255 0 0
0.699156 -0.213687 0.112143 76 153 0
0.356380 -0.253697 -0.094042 0 127 127
-0.475225 0.178378 -0.112278 76 0 153
-0.328517 0.182196 0.009292 0 255 0
0.760633 0.348125 0.101106 153 0 76
-0.324838 0.607972 0.086795 153 0 76
-0.787597 0.610877 0.027381 76 0 153
-0.258845 -0.135966 0.052107 255 0 0
-0.330357 -0.014236 0.024969 0 255 0
0.489504 -0.422932 -0.020836 153 76 0
0.342907 -0.214000 0.060583 76 153 0
-0.559934 0.138336 -0.112278 76 0 153
0.635002 0.534237 0.112143 0 127 127
0.117014 -0.124929 0.046191 255 0 0
-0.619617 -0.235302 -0.060633 0 255 0
0.356356 0.568080 -0.112278 76 0 153
0.761802 -0.413644 0.101106 153 76 0
0.154957 -0.429025 0.112156 0 0 255
0.770018 0.305245 0.067995 127 0 127
0.678368 -0.235302 -0.074829 127 127 0
0.411768 0.347444 -0.112278 76 0 153
-0.394287 0.577765 -0.004373 76 0 153
0.496489 0.073808 0.112143 76 153 0
0.087117 -0.437647 -0.099871 153 76 0
0.238186 -0.135966 -0.022125 255 0 0
0.770646 0.263900 -0.115957 76 0 153
-0.700475 0.283443 -0.100448 127 127 0
-0.198277 -0.257374 0.005204 0 255 0
0.555796 0.577765 0.003073 0 0 255
-0.612834 0.283443 -0.093121 127 127 0
-0.726629 0.443214 0.123180 127 0 127
0.122166 -0.437647 -0.003868 153 76 0
0.049008 -0.118600 0.112202 255 0 0
-0.755285 -0.053758 0.075291 255 0 0
-0.324838 0.388698 -0.103019 153 0 76
-0.740769 0.138589 0.123180 127 0 127
0.502783 -0.368586 -0.115957 76 0 153
-0.674013 -0.173954 -0.115957 76 0 153
0.295820 -0.135966 -0.054618 255 0 0
-0.345692 -0.430291 0.039796 153 76 0
0.522544 -0.163640 -0.112278 76 0 153
-0.748365 0.190449 -0.112278 76 0 153
-0.671580 -0.144555 0.113983 0 127 127
0.057845 -0.257374 -0.015268 0 255 0
-0.757726 0.348838 -0.090204 204 51 127
0.751186 0.530688 -0.112278 76 0 153
-0.359441 0.402839 -0.112278 76 0 153
-0.383471 0.148854 0.123180 0 127 127
0.034407 -0.135966 -0.027329 255 0 0
-0.505498 -0.250018 -0.051978 0 255 0
-0.541909 0.570407 -0.099052 76 0 153
0.598380 0.406415 -0.115957 76 0 153
-0.667845 0.570407 0.072261 76 0 153
0.342907 0.168416 0.023889 127 127 0
0.528382 0.417373 0.113983 76 153 0
0.431783 -0.246339 -0.043874 0 127 127
-0.762644 -0.041995 -0.009565 255 0 0
0.504680 -0.135815 -0.115957 76 0 153
-0.339651 0.325137 0.123180 127 0 127
-0.766323 0.071430 -0.098931 204 51 127
-0.313801 -0.216636 -0.068973 153 0 76
-0.102542 -0.437647 -0.087033 153 76 0
-0.690602 0.125035 -0.115957 76 0 153
-0.183618 -0.437647 -0.012479 153 76 0
-0.743288 0.546942 -0.112278 76 0 153
0.703400 -0.199434 -0.115957 76 0 153
-0.688215 -0.426611 -0.055967 153 76 0
-0.166878 -0.124929 0.086424 255 0 0
-0.677702 -0.034894 -0.112278 76 0 153
-0.627943 -0.197815 -0.115957 76 0 153
0.495134 -0.347040 0.119501 76 0 153
0.538100 0.251962 0.112143 76 153 0
0.375033 -0.253697 -0.098062 0 127 127
0.775194 0.557157 -0.085675 0 0 255
0.719579 -0.236206 -0.115957 76 0 153
0.453577 0.488509 -0.112278 76 0 153
0.619166 -0.235302 -0.078655 0 127 127
-0.456432 -0.184083 0.113983 0 127 127
0.338491 -0.079954 0.112143 76 153 0
0.791749 0.599188 -0.096611 0 0 255
-0.602840 -0.400984 -0.115957 76 0 153
-0.608754 -0.320324 -0.115957 76 0 153
-0.414958 -0.250018 0.025969 0 255 0
0.190667 -0.246337 -0.040368 0 255 0
0.106448 -0.426610 0.002939 153 76 0
-0.366722 -0.242660 -0.040851 0 255 0
-0.756089 0.385958 -0.082846 255 0 0
0.417441 -0.289284 -0.112278 76 0 153
-0.704485 0.139107 -0.115957 76 0 153
-0.760804 0.221122 0.037173 255 0 0
0.279883 -0.257374 -0.074483 0 255 0
0.114912 -0.135966 0.029412 255 0 0
0.428029 0.205921 0.112143 76 153 0
0.320987 -0.214772 0.101106 76 153 0
-0.547786 0.535988 0.123180 127 0 127
0.711886 0.406027 0.112143 76 153 0
-0.538124 0.029798 -0.115957 76 0 153
-0.465008 0.329219 -0.115957 76 0 153
-0.428031 -0.246339 0.057312 127 0 127
0.357832 -0.160152 0.112143 76 153 0
0.674623 0.243785 -0.115957 76 0 153
-0.136721 -0.246337 0.010717 0 255 0
0.396792 0.288792 0.106625 76 153 0
0.749893 -0.430291 0.067771 153 76 0
0.161291 -0.124929 0.072522 255 0 0
-0.660517 0.334576 0.113983 0 127 127
-0.647312 0.274174 0.112143 0 127 127
0.725810 -0.250018 -0.000799 0 127 127
-0.343789 -0.430291 0.080670 153 76 0
-0.696782 0.014772 -0.112278 76 0 153
0.716000 0.239025 0.113983 76 153 0
-0.755285 -0.423703 -0.033018 204 51 127
-0.193311 -0.113892 0.068712 255 0 0
0.552604 0.586123 0.123122 0 0 255
0.592975 0.047325 -0.112278 76 0 153
0.326351 -0.141145 0.065886 76 153 0
-0.593568 -0.419253 0.087372 153 76 0
-0.325273 -0.279476 0.101106 153 0 76
0.484571 0.353460 -0.115957 76 0 153
0.029759 -0.437647 0.011309 153 76 0
-0.340929 0.517539 0.123180 127 0 127
0.677244 0.136798 0.112143 76 153 0
-0.434727 -0.096495 -0.115957 76 0 153
0.344746 -0.362447 -0.054067 76 153 0
-0.328517 0.038028 -0.070362 0 255 0
-0.762644 0.369742 0.031680 255 0 0
0.194483 -0.124929 0.075847 255 0 0
0.312546 -0.124929 0.005542 255 0 0
-0.178173 -0.426610 -0.053624 153 76 0
-0.762644 -0.276017 -0.059943 204 51 127
0.326351 -0.418370 -0.070069 76 153 0
0.512534 0.479165 0.112143 76 153 0
0.399185 -0.242660 0.085644 0 127 127
-0.470230 -0.246339 0.053691 127 0 127
0.101596 -0.478116 -0.115803 76 0 153
0.085005 -0.124929 -0.011035 255 0 0
-0.324838 0.465360 0.104893 153 0 76
-0.363486 0.232895 -0.115957 76 0 153
0.337388 0.592613 0.017117 0 0 255
0.775194 -0.308223 -0.034616 153 0 76
-0.046400 -0.124929 -0.108304 255 0 0
-0.755285 0.182799 0.082926 255 0 0
-0.766323 0.222554 0.097126 204 51 127
-0.678329 -0.246339 0.034532 0 255 0
0.773354 0.537065 -0.027580 127 0 127
-0.760804 0.024244 -0.000062 255 0 0
0.182887 -0.117449 0.112202 255 0 0
-0.313801 -0.346014 -0.018932 153 0 76
-0.470807 -0.391802 0.112143 127 0 127
-0.443662 -0.024865 -0.112278 76 0 153
-0.070696 -0.113892 -0.091541 255 0 0
-0.424582 0.363999 0.113983 0 127 127
0.342907 -0.181444 -0.020149 127 127 0
0.337388 0.301190 -0.106113 76 153 0
0.152352 -0.122971 -0.115898 255 0 0
0.455661 -0.081324 0.112143 76 153 0
0.342907 -0.057054 -0.047868 127 127 0
-0.460007 -0.473885 -0.115957 76 0 153
-0.327765 0.426367 0.112143 153 0 76
-0.224768 -0.243049 -0.115957 76 0 153
0.348425 -0.192921 -0.084582 127 127 0
-0.024248 -0.124930 0.108856 255 0 0
0.330640 0.574029 0.083180 76 153 0
0.452342 -0.104780 -0.112278 76 0 153
-0.710888 0.431965 0.112143 0 127 127
0.576285 0.296511 0.113983 76 153 0
0.559032 -0.227944 0.122533 76 0 153
-0.246844 -0.246337 -0.047766 0 255 0
0.239183 -0.136263 0.112141 255 0 0
-0.668295 -0.411895 0.122659 0 0 255
0.436880 0.595685 0.125020 0 0 255
0.544914 -0.235302 -0.029934 0 127 127
-0.403092 -0.256235 0.112143 153 0 76
-0.313801 -0.465369 0.056289 153 0 76
-0.701800 0.559169 0.112143 76 0 153
0.327946 -0.141971 -0.115957 76 153 0
0.370060 0.253404 0.123180 0 127 127
-0.372755 0.481731 -0.115957 76 0 153
-0.512399 0.029896 0.113983 0 127 127
-0.616835 0.593441 0.119501 76 0 153
0.372957 0.114424 0.123180 0 127 127
0.360351 -0.090363 0.101106 0 127 127
-0.760804 -0.166607 0.058227 255 0 0
0.799035 0.603874 0.040643 0 0 255
-0.524223 -0.245363 0.123180 153 0 76
-0.538056 0.294480 -0.097175 127 127 0
-0.595266 0.209434 0.113983 0 127 127
0.713375 -0.253697 -0.083864 0 127 127
-0.330357 -0.068757 -0.018118 0 255 0
-0.328517 0.377004 -0.054722 0 255 0
-0.416312 0.148210 -0.115957 76 0 153
-0.741980 0.504773 -0.112278 76 0 153
0.729876 -0.242660 0.094443 0 127 127
-0.330357 0.113769 -0.069612 0 255 0
0.778873 -0.116471 -0.112942 153 0 76
0.100500 -0.246337 0.029702 0 255 0
0.778873 -0.257869 0.039784 153 0 76
0.062163 -0.426610 0.010831 153 76 0
0.767836 0.446926 0.083084 153 0 76
0.251381 -0.426610 -0.095777 153 76 0
-0.417978 -0.422932 -0.082109 153 76 0
0.416749 0.570407 -0.109550 76 0 153
-0.324838 0.522984 0.073992 0 255 0
0.018746 -0.212041 -0.115957 76 0 153
-0.081832 -0.246337 -0.007437 0 255 0
0.019418 -0.246337 -0.039676 0 255 0
-0.334770 0.499095 0.067995 0 255 0
-0.155591 -0.135966 -0.029129 255 0 0
0.775194 0.324780 0.061536 127 0 127
-0.470907 -0.422932 -0.011063 153 76 0
0.451434 0.544654 0.118724 0 127 127
-0.499339 -0.060805 0.113983 0 127 127
0.566051 -0.195396 -0.115957 76 0 153
0.389934 -0.181485 0.106625 76 153 0
-0.241092 -0.246337 0.085932 0 255 0
0.775194 0.414091 0.061520 127 0 127
0.724177 -0.056486 0.123180 0 127 127
0.326351 -0.444366 0.049171 76 153 0
-0.324897 0.088934 0.112143 153 0 76
0.471693 0.383267 0.112143 76 153 0
-0.760804 0.264908 -0.014004 255 0 0
-0.335875 0.551440 0.090243 153 0 76
-0.042856 -0.146601 0.101098 255 0 0
-0.210786 -0.432362 0.112154 0 0 255
0.459070 -0.242660 -0.080896 127 127 0
0.220608 -0.135966 0.034481 255 0 0
-0.328517 0.152145 -0.058915 0 255 0
-0.698279 -0.244840 0.037643 0 255 0
0.356412 -0.430291 0.034214 76 153 0
0.148524 -0.426610 0.050979 153 76 0
-0.335875 -0.192394 0.090806 153 0 76
0.375627 0.308080 0.123180 0 127 127
0.326351 -0.398824 -0.022129 76 153 0
-0.582169 -0.246339 0.050852 127 0 127
-0.483899 0.292011 -0.115957 127 127 0
0.767836 -0.473569 -0.014688 153 0 76
0.767836 -0.457933 -0.048351 153 0 76
0.337388 -0.316674 -0.097823 76 153 0
0.450120 0.307325 -0.115957 127 0 127
-0.729584 -0.023563 0.112143 127 0 127
-0.708013 -0.419253 0.083632 153 76 0
-0.401541 -0.227944 0.107128 0 127 127
-0.425511 -0.421563 0.112143 127 0 127
0.487520 -0.436826 0.101106 0 0 255
0.337388 0.090336 -0.102541 76 153 0
0.736402 -0.242660 -0.028206 0 127 127
-0.385732 -0.187623 -0.115957 76 0 153
-0.324838 -0.255114 -0.048349 153 0 76
-0.706141 -0.184813 -0.115957 76 0 153
-0.314686 0.610877 0.033209 76 0 153
-0.410704 -0.242660 0.084017 127 0 127
-0.481761 -0.133092 0.113983 0 127 127
0.465695 0.226926 0.112143 76 153 0
0.315725 -0.257374 -0.091832 0 255 0
0.234451 -0.426610 -0.079051 153 76 0
0.152329 -0.257374 0.003628 0 255 0
0.326351 -0.229066 -0.047917 76 153 0
-0.555025 0.465984 -0.112278 76 0 153
0.149193 -0.437647 -0.058049 153 76 0
-0.444510 0.247276 0.112143 0 127 127
0.534719 -0.224387 -0.115957 127 127 0
-0.654047 0.549681 0.112143 76 0 153
-0.608812 0.504185 0.107686 0 127 127
0.341067 -0.098639 0.003826 127 127 0
0.339758 -0.216971 0.101106 76 153 0
0.473165 0.111127 0.112143 76 153 0
0.343711 -0.235302 0.008087 76 153 0
0.642257 0.557282 0.101106 0 0 255
0.453499 -0.017004 0.112143 76 153 0
-0.682402 0.240915 -0.112278 76 0 153
-0.115874 -0.227566 -0.115957 76 0 153
-0.340348 -0.042788 -0.115957 76 0 153
-0.434605 0.129776 0.113983 0 127 127
-0.437125 0.010266 -0.112278 76 0 153
-0.709930 -0.086088 -0.112278 76 0 153
0.337388 0.163760 0.104008 76 153 0
-0.324838 0.447339 -0.100349 153 0 76
0.010714 -0.426610 -0.097759 153 76 0
0.009581 -0.124929 -0.009983 255 0 0
0.525075 0.571549 0.101106 0 0 255
-0.332722 -0.222111 -0.115957 153 0 76
-0.682474 -0.390618 0.112143 127 0 127
0.031685 -0.257374 0.092001 0 255 0
0.773354 0.263473 0.049097 127 0 127
0.764884 -0.430291 0.019350 153 0 76
-0.754247 -0.430291 0.080154 153 76 0
-0.718161 -0.250018 0.009934 0 255 0
0.332070 0.610877 -0.092950 0 0 255
0.767836 0.577847 -0.007897 0 0 255
-0.762644 -0.336709 0.020766 204 51 127
0.424292 0.574086 0.051512 0 0 255
0.623746 0.323716 -0.115957 76 0 153
-0.335875 0.407698 0.085202 153 0 76
0.278224 -0.457274 0.101109 0 0 255
0.652495 -0.421289 -0.112278 76 0 153
-0.313801 -0.162572 -0.016147 153 0 76
0.225894 -0.266451 -0.112278 76 0 153
0.401516 -0.419253 0.092026 0 0 255
0.119016 -0.426610 0.057523 153 76 0
0.628608 -0.235302 -0.026857 0 127 127
-0.634004 0.009386 -0.115957 76 0 153
-0.569135 -0.235302 -0.102394 76 0 153
0.778729 -0.105535 0.101106 153 0 76
-0.577600 0.289019 0.113983 0 127 127
0.764483 0.581445 -0.101377 0 0 255
-0.514100 0.036884 -0.112278 76 0 153
0.390468 -0.014336 0.123180 0 127 127
0.426756 -0.235302 -0.012166 0 127 127
0.371971 0.415716 0.123180 0 127 127
-0.755285 0.568136 0.022706 76 0 153
0.098236 -0.437647 -0.033508 153 76 0
0.581932 -0.250018 -0.074482 0 127 127
-0.659882 0.187806 0.112143 0 127 127
0.467638 -0.430291 -0.097178 153 76 0
-0.766323 -0.461574 -0.062034 204 51 127
0.773354 0.211655 -0.067475 127 0 127
0.778873 0.346097 0.072339 127 0 127
0.552054 0.341608 0.112143 76 153 0
-0.790236 0.605937 -0.039188 76 0 153
-0.404833 -0.284578 -0.112278 76 0 153
-0.506217 -0.313626 0.119501 153 0 76
-0.601725 -0.020997 -0.115957 76 0 153
0.545711 0.176712 0.113983 76 153 0
0.549831 0.549924 -0.112278 76 0 153
-0.430979 -0.403983 0.123180 127 0 127
0.341067 0.098848 -0.032780 127 127 0
-0.271757 -0.289345 -0.115957 76 0 153
0.486932 -0.426611 0.003287 153 76 0
0.329861 0.581445 0.054896 0 0 255
0.345638 0.537296 -0.056430 127 127 0
-0.180570 -0.200512 -0.112278 76 0 153
0.688650 -0.147404 -0.115957 76 0 153
0.083932 -0.257374 -0.081705 0 255 0
0.472449 -0.180514 -0.112278 76 0 153
0.326351 -0.340579 -0.055182 76 153 0
0.054903 -0.426610 -0.095127 153 76 0
-0.127933 -0.113892 0.052821 255 0 0
0.000037 -0.113892 -0.037509 255 0 0
0.175437 -0.124929 -0.112639 76 0 153
-0.762644 -0.373475 0.038067 204 51 127
0.410937 -0.113106 -0.112278 76 0 153
0.684036 -0.227951 0.112143 76 153 0
0.775194 -0.137816 0.002697 127 0 127
-0.105230 -0.257374 0.006410 0 255 0
0.749038 -0.336232 -0.112278 76 0 153
0.778873 -0.152852 0.093973 153 0 76
0.566968 0.473126 0.113983 76 153 0
0.154131 -0.437647 0.076136 153 76 0
0.343194 -0.448655 0.112143 76 153 0
0.417930 -0.350784 -0.112278 76 0 153
0.511121 0.287638 0.113983 76 153 0
0.324931 -0.374184 0.112143 76 153 0
-0.463620 -0.249341 0.119501 153 0 76
-0.592744 -0.100062 -0.115957 76 0 153
-0.163466 -0.426610 -0.069119 153 76 0
-0.726096 -0.342961 0.123180 127 0 127
-0.335875 0.261535 0.091056 153 0 76
-0.330357 0.201660 0.016783 0 255 0
-0.288711 -0.257374 -0.020953 0 255 0
0.580119 -0.235302 0.026139 127 127 0
0.724405 -0.084993 -0.112278 76 0 153
-0.679550 -0.445562 -0.112278 76 0 153
0.490454 -0.250018 -0.074061 0 127 127
-0.118383 -0.113892 -0.103855 255 0 0
-0.407863 -0.452661 -0.112278 76 0 153
-0.658178 0.112665 -0.112278 76 0 153
0.326351 -0.154624 0.084135 76 153 0
-0.137221 -0.135966 0.062500 255 0 0
0.769380 0.581445 -0.055080 0 0 255
-0.416814 -0.009842 -0.112278 76 0 153
0.773354 -0.193018 -0.040032 127 0 127
-0.680454 0.343376 -0.115957 76 0 153
0.684339 0.506648 -0.115957 76 0 153
-0.435728 -0.286101 0.119501 153 0 76
-0.718979 0.570407 -0.086563 76 0 153
-0.654364 -0.135042 -0.115957 76 0 153
-0.766323 0.593405 -0.086965 76 0 153
0.342907 -0.206292 -0.040859 127 127 0
-0.398290 0.572003 -0.115957 76 0 153
-0.324838 0.490964 -0.087223 153 0 76
0.400922 0.561124 0.112143 0 0 255
0.723145 0.520429 -0.115957 76 0 153
-0.762644 -0.437285 -0.059832 204 51 127
-0.319320 -0.269433 -0.114912 153 0 76
-0.335875 0.330434 -0.097254 153 0 76
0.406806 0.541970 0.101106 0 0 255
0.764862 -0.133549 0.112143 0 127 127
-0.760804 0.008092 -0.115207 204 51 127
-0.332196 -0.277383 -0.004566 153 0 76
-0.024838 -0.257374 0.090860 0 255 0
0.559461 -0.242660 0.081569 0 127 127
-0.766323 0.609724 0.040832 76 0 153
-0.108712 -0.246337 -0.075559 0 255 0
0.526752 -0.358623 0.115822 76 0 153
-0.348250 -0.430291 -0.064099 153 76 0
0.714008 -0.380356 0.112143 0 127 127
-0.358445 -0.356271 0.123180 127 0 127
0.477884 0.314994 0.112143 76 153 0
0.526982 0.574086 -0.077531 0 0 255
0.767109 0.375680 0.112143 0 127 127
-0.313801 -0.344704 0.004041 153 0 76
0.621451 -0.446145 0.101106 0 0 255
-0.657059 0.510168 0.123180 127 0 127
-0.364314 0.348563 -0.115957 76 0 153
0.473785 0.336221 -0.112278 76 0 153
0.567642 -0.451494 -0.112278 76 0 153
0.337388 0.209260 -0.100550 76 153 0
0.348425 0.178639 -0.084942 127 127 0
0.108295 -0.431448 0.101165 0 0 255
-0.740222 -0.212348 0.101106 127 0 127
-0.558789 0.307506 0.113983 0 127 127
-0.766323 0.477213 -0.113012 204 51 127
0.450617 0.567346 0.101106 0 0 255
0.234307 -0.450322 0.112148 0 0 255
0.729206 0.441732 0.108917 76 153 0
-0.637220 -0.242660 0.092130 127 0 127
-0.011589 -0.437647 0.099539 153 76 0
0.641134 0.464144 0.112143 76 153 0
0.247766 -0.426610 0.058108 153 76 0
-0.559586 -0.327224 0.115822 153 0 76
0.661529 -0.253697 0.094286 0 127 127
-0.335875 0.577669 -0.063836 76 0 153
-0.379373 -0.426611 0.022439 153 76 0
-0.200328 -0.246337 0.030245 0 255 0
0.185984 -0.246337 0.028005 0 255 0
0.347951 0.581445 -0.073827 0 0 255
0.326351 -0.315116 0.043599 76 153 0
-0.562029 -0.252265 0.067995 127 0 127
0.661815 -0.246339 -0.024403 127 127 0
-0.731750 0.521918 0.123180 127 0 127
0.455935 0.274593 -0.115957 76 0 153
