ply
format ascii 1.0
element vertex 1255
property float x
property float y
property float z
property uchar red
property uchar green
property uchar blue
end_header
-0.021725 -0.158839 -0.321254 127 127 0
-0.018449 0.127179 0.276889 76 153 0
-0.015257 -0.558150 0.276551 76 153 0
-0.679639 -0.571308 0.276537 76 153 0
-0.729804 -0.095996 -0.047686 0 127 127
0.700979 -0.654771 -0.188400 127 0 127
-0.054838 -0.637090 -0.321250 127 127 0
-0.223899 0.567026 0.067408 127 127 0
0.725892 0.022331 0.215307 127 0 127
-0.355291 0.478571 0.345856 76 0 153
-0.725758 -0.257405 0.152436 0 127 127
0.577575 -0.147219 0.276889 76 0 153
0.380849 0.566203 0.015384 127 127 0
0.485809 0.223114 -0.321254 127 127 0
0.327889 -0.691110 -0.055096 153 0 76
-0.041944 0.094486 0.276870 76 153 0
0.564591 -0.691110 0.105973 153 0 76
-0.730858 -0.053994 -0.103434 0 127 127
-0.102025 0.436036 -0.321254 127 127 0
-0.225738 0.054611 -0.321254 127 127 0
-0.724409 0.493340 0.340508 76 0 153
0.730711 0.147477 0.155863 127 0 127
-0.726497 -0.098058 -0.310344 0 127 127
0.729572 0.108389 -0.060184 127 0 127
-0.044874 0.566282 0.264335 127 127 0
-0.216149 -0.647616 -0.321177 127 127 0
-0.535247 0.453958 0.316377 76 0 153
-0.468893 -0.589529 -0.321254 127 127 0
0.608503 -0.689307 0.264525 153 0 76
-0.525046 0.015707 0.276714 76 153 0
0.576108 0.000118 0.276888 76 153 0
0.712602 -0.345313 -0.101007 127 0 127
0.251206 -0.493737 -0.321254 127 127 0
-0.518490 -0.450695 0.276889 153 76 0
-0.725630 -0.262525 -0.002082 0 127 127
-0.028892 -0.691110 0.121002 153 0 76
0.331195 0.012336 -0.321254 127 127 0
0.714809 -0.289350 0.022361 127 0 127
-0.376596 0.364127 0.276720 76 153 0
0.452997 0.424073 0.276754 76 153 0
-0.470434 -0.691110 -0.209911 153 0 76
-0.733440 0.049316 0.215770 0 127 127
-0.753312 0.565410 -0.011342 127 127 0
-0.501029 -0.434489 -0.321254 127 127 0
-0.738436 0.248286 -0.033658 0 127 127
0.034350 -0.443270 -0.321254 127 127 0
-0.506341 0.030572 -0.321254 127 127 0
-0.562633 -0.691110 0.099989 153 0 76
-0.770508 0.508174 -0.168976 127 127 0
-0.139887 0.434044 -0.321254 127 127 0
-0.732273 0.002479 -0.141435 0 127 127
0.530844 0.428848 -0.321254 127 127 0
-0.519124 -0.126848 -0.321254 127 127 0
-0.563877 -0.691110 0.173551 153 0 76
-0.075920 -0.689295 0.264555 153 0 76
0.341055 0.104614 0.276676 76 153 0
0.371816 -0.691110 -0.168265 153 0 76
-0.522491 -0.449862 -0.321254 127 127 0
0.234526 -0.689587 -0.303351 127 127 0
-0.400927 0.563346 0.306717 127 127 0
0.739193 0.384558 0.140679 127 0 127
-0.102478 0.459484 0.342152 76 0 153
-0.135118 -0.485962 0.276503 153 76 0
-0.593972 0.566030 -0.066482 127 127 0
-0.500229 0.567025 0.170120 127 127 0
0.685349 -0.438239 -0.319401 127 127 0
0.155919 0.466458 0.345844 76 0 153
0.738119 0.350479 -0.114546 127 0 127
0.321766 -0.232931 0.276722 76 0 153
-0.737625 0.215930 -0.184269 0 127 127
-0.233185 0.097020 0.276842 76 153 0
0.630335 0.566404 -0.005244 127 127 0
0.259639 -0.691110 -0.213190 153 0 76
-0.578525 -0.217984 0.276889 153 76 0
0.722958 -0.075475 -0.043457 127 0 127
0.709936 -0.416205 -0.032281 127 0 127
-0.597804 0.566114 -0.248298 127 127 0
-0.510939 -0.482261 -0.321254 127 127 0
0.728454 0.086696 0.191407 127 0 127
-0.674629 -0.619501 -0.321063 127 127 0
-0.555215 -0.691110 -0.107541 153 0 76
0.048387 0.234835 0.276840 76 153 0
0.742782 0.452054 0.142794 127 0 127
-0.392127 -0.691110 -0.090237 153 0 76
0.526728 0.517655 0.308911 127 127 0
0.631064 -0.389659 0.276560 76 153 0
-0.111971 -0.691110 0.023125 153 0 76
0.707617 -0.478858 -0.124727 127 0 127
0.019502 -0.364020 0.276426 76 153 0
0.287093 -0.494832 -0.321254 127 127 0
-0.433537 -0.691110 -0.072947 153 0 76
0.340762 0.353788 0.276721 76 153 0
0.280217 0.103388 0.276510 76 153 0
0.433425 -0.577036 0.276259 76 153 0
-0.513137 -0.515982 -0.321254 127 127 0
-0.058194 -0.346557 0.276493 76 153 0
-0.077459 0.111927 -0.321254 127 127 0
0.201264 -0.690625 -0.297876 153 0 76
0.732509 0.202020 0.071089 127 0 127
-0.756612 0.482981 -0.290115 0 127 127
-0.673651 0.566030 -0.072076 127 127 0
-0.386689 0.566366 0.220079 127 127 0
-0.194493 0.480528 0.289397 76 153 0
0.361089 -0.196581 0.276770 76 0 153
-0.310268 -0.691110 0.106536 153 0 76
-0.564843 -0.691110 0.196793 153 0 76
-0.578379 -0.271107 0.276889 153 76 0
0.712134 -0.368403 0.076928 127 0 127
0.648808 -0.690808 0.250078 153 0 76
-0.219600 -0.438818 0.276247 153 76 0
0.725112 -0.008762 -0.131278 127 0 127
0.421158 0.566240 0.011555 127 127 0
-0.738132 0.236134 -0.171417 0 127 127
0.453609 -0.161911 -0.321254 127 127 0
-0.473042 0.131347 -0.321254 127 127 0
-0.752773 0.473504 -0.232313 0 127 127
-0.440440 -0.474485 0.276889 153 76 0
0.124150 0.547137 -0.320217 127 127 0
0.613776 0.564416 0.303642 127 127 0
-0.580943 -0.669071 -0.320808 127 127 0
0.381231 0.503820 0.300602 127 127 0
-0.734716 0.099918 -0.159270 0 127 127
0.062164 0.566476 -0.028552 127 127 0
0.616161 -0.230380 0.276724 76 153 0
-0.162132 0.297340 0.276887 204 51 127
0.740486 0.406945 -0.291382 127 0 127
-0.221891 0.464836 0.344417 76 0 153
0.775516 0.532477 0.207169 127 127 0
0.456752 -0.023683 -0.321254 127 127 0
-0.439731 0.566301 -0.267837 127 127 0
-0.642371 0.198939 -0.321254 127 127 0
0.604856 -0.691107 -0.250875 153 0 76
-0.393889 0.406857 0.276388 76 153 0
0.706158 -0.497323 0.257161 127 0 127
-0.421054 -0.636893 0.276551 76 153 0
-0.357308 -0.266589 0.276795 153 76 0
0.052229 0.458292 -0.321254 127 127 0
-0.322303 -0.687478 -0.309608 127 127 0
0.120754 0.566167 -0.298414 127 127 0
-0.704906 -0.684003 0.238394 0 127 127
-0.362811 -0.626579 -0.321252 127 127 0
-0.780306 0.531952 -0.021616 127 127 0
-0.226589 0.505251 -0.321247 127 127 0
-0.236661 -0.691110 -0.025526 153 0 76
0.458705 -0.358596 0.276889 76 0 153
0.495818 0.476584 0.301592 76 0 153
0.288687 -0.256483 -0.321254 127 127 0
0.724504 -0.031904 -0.016259 127 0 127
0.680465 0.567029 -0.088242 127 127 0
0.290871 0.164596 -0.321254 127 127 0
-0.715128 -0.637171 0.262044 0 127 127
0.716520 -0.245737 -0.032923 127 0 127
-0.559417 -0.690841 -0.286785 153 0 76
-0.726043 -0.190855 -0.304215 0 127 127
-0.416820 -0.108548 0.276315 153 76 0
-0.082024 -0.205819 0.276889 153 76 0
-0.733258 0.041778 -0.017838 0 127 127
0.206333 0.544906 -0.320732 127 127 0
0.315345 -0.691110 0.167463 153 0 76
-0.215537 -0.296382 -0.321254 127 127 0
-0.348441 0.566030 -0.073323 127 127 0
-0.069081 0.249326 -0.321254 127 127 0
0.734790 0.254979 0.000156 127 0 127
0.727323 0.065288 0.238370 127 0 127
0.516475 -0.189749 0.276889 76 0 153
-0.312234 -0.691110 0.073929 153 0 76
-0.758636 0.564230 0.097557 127 127 0
0.033887 -0.098767 -0.321254 127 127 0
-0.655444 -0.028848 0.276419 76 153 0
0.724349 -0.028895 -0.176266 127 0 127
-0.380994 -0.556924 -0.321254 127 127 0
-0.732345 0.005321 -0.224092 0 127 127
0.203921 -0.408920 -0.321254 127 127 0
0.283961 0.015936 -0.321254 127 127 0
-0.313883 0.244592 0.276583 204 51 127
-0.132786 0.070924 0.276584 76 153 0
0.608098 0.129986 0.276839 76 153 0
-0.526544 -0.691110 -0.094676 153 0 76
0.357453 0.076082 0.276497 76 153 0
-0.673155 0.470310 -0.321254 127 127 0
-0.568319 -0.107512 -0.321254 127 127 0
0.716638 -0.241150 0.194073 127 0 127
-0.108301 -0.691087 0.230784 153 0 76
-0.727560 -0.171327 -0.292902 0 127 127
-0.740297 0.322545 -0.088469 0 127 127
0.558608 -0.691110 -0.008505 153 0 76
-0.327909 -0.583562 -0.321254 127 127 0
-0.222545 -0.689514 0.264021 153 0 76
-0.296546 0.308768 0.276848 204 51 127
0.742398 0.450280 -0.213744 127 0 127
0.421467 -0.426918 0.276576 76 0 153
-0.327618 -0.451287 0.276080 153 76 0
0.718465 -0.181455 0.146473 127 0 127
0.500807 0.195883 -0.321254 127 127 0
0.729393 0.094479 -0.250591 127 0 127
-0.274278 0.494258 0.334825 76 0 153
0.480159 -0.212333 -0.321254 127 127 0
-0.637566 -0.522480 -0.321254 127 127 0
-0.505466 0.450361 0.284619 76 153 0
-0.718634 0.161779 -0.319043 127 127 0
0.703787 -0.592724 0.208202 127 0 127
-0.179897 0.330858 0.276778 76 153 0
0.163597 -0.473852 0.276889 76 0 153
-0.526884 -0.241446 -0.321254 127 127 0
0.449578 -0.308796 -0.321254 127 127 0
-0.676751 -0.483511 0.276341 76 153 0
-0.368440 -0.691110 0.182369 153 0 76
-0.728072 -0.165146 -0.142043 0 127 127
-0.730136 -0.082768 -0.065379 0 127 127
0.317191 0.566030 0.186480 127 127 0
0.526067 0.226155 0.276784 255 0 0
-0.553661 -0.500295 -0.321254 127 127 0
0.257475 0.491480 0.330311 76 0 153
-0.336420 0.380239 -0.321254 127 127 0
-0.162197 0.566053 -0.241913 127 127 0
0.735786 0.281913 -0.239495 127 0 127
0.436209 0.132079 -0.321254 127 127 0
-0.394008 -0.210825 0.276784 153 76 0
0.164600 0.161078 0.276408 255 0 0
-0.106337 -0.599425 0.276534 76 153 0
-0.278047 0.275120 0.276556 204 51 127
-0.151471 -0.226506 0.276889 153 76 0
-0.592306 0.181937 0.276652 76 153 0
0.718583 -0.183932 -0.057542 127 0 127
-0.215690 0.001071 0.276714 76 153 0
0.061814 -0.569322 -0.321254 127 127 0
0.070314 0.427425 0.276778 76 153 0
0.029392 -0.057218 -0.321254 127 127 0
0.691006 0.510176 -0.321163 127 127 0
-0.452313 -0.244074 0.276889 153 76 0
-0.590685 -0.691110 0.187760 153 0 76
-0.403741 -0.297753 0.276870 153 76 0
-0.403179 -0.019149 0.276268 76 153 0
-0.533866 0.566030 -0.074193 127 127 0
0.457954 -0.691110 0.136918 153 0 76
0.727782 0.062353 -0.080667 127 0 127
-0.066374 -0.691110 -0.063620 153 0 76
-0.542767 -0.691110 -0.039009 153 0 76
-0.136400 0.566279 -0.283697 127 127 0
0.053110 -0.415438 0.276753 76 153 0
-0.545484 -0.040681 0.276879 153 76 0
-0.041013 0.036037 0.276875 76 153 0
0.191152 -0.100747 0.276303 76 0 153
0.574674 -0.561359 0.276394 76 153 0
-0.722317 -0.394705 0.107486 0 127 127
-0.029467 -0.669236 0.276422 76 153 0
0.432120 0.566189 -0.295533 127 127 0
-0.090413 -0.473737 -0.321254 127 127 0
-0.192107 0.294789 -0.321254 127 127 0
0.705682 -0.536962 -0.012189 127 0 127
0.714647 -0.295650 -0.018865 127 0 127
-0.640063 0.567029 0.130112 127 127 0
0.022215 0.140602 -0.321254 127 127 0
-0.642932 -0.691110 0.042327 153 0 76
0.619037 0.566833 -0.212162 127 127 0
0.215894 -0.691110 0.109143 153 0 76
0.145309 -0.118897 -0.321254 127 127 0
-0.176242 0.467501 0.283972 76 153 0
0.490145 -0.198866 0.276889 76 0 153
0.298708 -0.000447 0.276242 76 153 0
0.141359 0.493628 0.321093 76 0 153
-0.557837 0.230600 0.276813 204 51 127
0.615073 0.479603 0.341933 76 0 153
-0.219887 0.566030 -0.041019 127 127 0
-0.693915 -0.686961 -0.299039 153 0 76
0.626414 -0.501546 -0.321254 127 127 0
0.155829 0.566381 -0.017650 127 127 0
-0.562069 -0.202746 0.276889 153 76 0
-0.718522 -0.546065 0.040340 0 127 127
0.534752 0.087810 -0.321254 127 127 0
0.716074 -0.252149 0.037584 127 0 127
-0.726681 -0.220602 -0.014553 0 127 127
0.730003 0.122331 0.173065 127 0 127
-0.664379 -0.690905 0.220232 153 0 76
0.344342 -0.691106 -0.251857 153 0 76
-0.541713 -0.481287 0.276889 153 76 0
0.016595 0.462074 0.301652 76 0 153
-0.741684 0.377845 -0.016961 0 127 127
-0.674598 -0.076096 -0.321246 127 127 0
0.099509 -0.590793 -0.321254 127 127 0
0.594371 0.039489 0.276887 76 153 0
0.245410 0.219875 -0.321254 127 127 0
-0.218064 0.566214 -0.258651 127 127 0
0.561407 0.567029 -0.158515 127 127 0
-0.337097 0.196793 0.276473 204 51 127
0.454443 0.326949 -0.321254 127 127 0
-0.486184 0.206233 0.276648 204 51 127
-0.403392 -0.691110 -0.174016 153 0 76
-0.415856 0.421613 -0.321254 127 127 0
-0.667359 -0.690882 -0.011952 153 0 76
0.349291 0.523301 0.313712 127 127 0
-0.267841 -0.510143 -0.321254 127 127 0
-0.240491 0.494256 0.311523 76 0 153
-0.442090 -0.057309 -0.321254 127 127 0
0.725533 0.011802 0.118038 127 0 127
-0.283773 0.134776 0.276771 76 153 0
0.430471 -0.406746 -0.321254 127 127 0
0.316883 0.344541 -0.321254 127 127 0
-0.429918 0.001634 0.276404 76 153 0
-0.735268 0.121917 0.122602 0 127 127
-0.722976 -0.368357 0.048738 0 127 127
-0.736349 0.166391 0.237951 0 127 127
0.652304 -0.691005 0.167357 153 0 76
0.697113 -0.675325 -0.172387 127 0 127
-0.165386 -0.691110 -0.195897 153 0 76
0.265912 -0.691110 -0.191174 153 0 76
0.306703 0.369110 -0.321254 127 127 0
0.734293 0.245465 -0.039445 127 0 127
-0.636637 -0.655742 0.276359 76 153 0
0.246080 0.396501 -0.321254 127 127 0
0.711374 -0.378019 -0.154690 127 0 127
-0.735096 0.115047 0.081530 0 127 127
0.726806 0.032856 -0.018184 127 0 127
0.080395 0.235122 0.276863 255 0 0
0.655774 -0.209709 -0.321244 127 127 0
0.195221 0.324991 -0.321254 127 127 0
0.686544 0.253177 0.276474 76 153 0
0.022432 -0.164258 0.276556 76 153 0
-0.236978 -0.117120 -0.321254 127 127 0
-0.546859 0.567029 0.184286 127 127 0
0.707188 -0.495169 -0.162306 127 0 127
-0.071915 0.375862 0.276804 76 153 0
0.617292 -0.691109 -0.026820 153 0 76
0.701166 0.546607 -0.320380 127 127 0
0.720651 -0.126530 0.190093 127 0 127
0.081341 -0.388814 -0.321254 127 127 0
0.694108 -0.347585 0.275447 76 153 0
-0.395844 0.174832 0.276341 204 51 127
-0.547495 -0.018794 0.276821 76 153 0
-0.727139 -0.202346 -0.137976 0 127 127
-0.429278 0.446442 -0.321254 127 127 0
0.589855 -0.691110 -0.117563 153 0 76
0.160502 -0.286674 -0.321254 127 127 0
0.177264 0.537281 -0.320984 127 127 0
-0.737315 0.203577 -0.129620 0 127 127
-0.587869 0.566030 -0.038691 127 127 0
0.645943 0.259357 -0.321254 127 127 0
-0.523943 -0.691110 0.185810 153 0 76
-0.715957 -0.645667 0.003282 0 127 127
0.585640 -0.691110 0.151324 153 0 76
0.492718 -0.691110 -0.114789 153 0 76
-0.622061 -0.547975 -0.321254 127 127 0
-0.265013 -0.691110 0.049745 153 0 76
0.291268 0.309136 -0.321254 127 127 0
-0.623827 -0.691110 -0.148504 153 0 76
0.672396 -0.690686 -0.115762 127 0 127
-0.607900 0.170505 -0.321254 127 127 0
0.270813 0.448670 0.333901 76 0 153
-0.741075 0.361980 0.245765 0 127 127
-0.442798 0.533480 -0.321067 127 127 0
-0.532289 0.567029 0.150005 127 127 0
0.710582 -0.410379 0.216964 127 0 127
0.163775 -0.172983 0.276765 76 0 153
-0.695215 0.499121 0.332272 76 0 153
-0.573861 -0.691104 -0.258857 153 0 76
0.149790 0.566030 0.233711 127 127 0
-0.134403 0.489991 0.338769 76 0 153
0.716849 -0.234955 -0.068780 127 0 127
0.532992 0.460794 -0.321226 127 127 0
0.469118 0.566299 -0.225881 127 127 0
0.427850 -0.119080 -0.321254 127 127 0
-0.741162 0.477715 0.301846 76 0 153
-0.372112 -0.374124 0.276515 153 76 0
0.103237 0.566029 0.074569 127 127 0
0.724514 -0.025245 -0.275798 127 0 127
0.270607 -0.185524 0.276264 76 0 153
-0.558321 0.038814 -0.321254 127 127 0
0.729512 0.117080 0.218973 127 0 127
0.517395 0.566030 0.218498 127 127 0
0.166357 0.493205 0.326230 76 0 153
0.365058 0.545479 -0.320659 127 127 0
-0.276723 0.366171 -0.321254 127 127 0
-0.731107 -0.043897 -0.260529 0 127 127
-0.279999 0.566030 -0.046347 127 127 0
-0.561453 0.566942 0.212301 127 127 0
0.737305 0.329505 0.087099 127 0 127
0.078709 0.566417 0.022185 127 127 0
-0.740304 0.458707 0.335638 76 0 153
0.570928 -0.359233 -0.321254 127 127 0
-0.223517 -0.691110 0.028205 153 0 76
0.691498 0.566144 0.165773 127 127 0
-0.341821 -0.002016 0.276549 76 153 0
0.776898 0.528126 0.253804 127 127 0
-0.412071 -0.587666 0.276746 76 153 0
0.748949 0.562298 0.046971 127 127 0
-0.741930 0.387682 0.094076 0 127 127
0.722733 -0.076051 -0.277133 127 0 127
-0.741795 0.382265 -0.102280 0 127 127
0.438175 -0.474184 0.276358 76 0 153
0.728562 0.111219 0.259454 127 0 127
-0.401026 0.470766 -0.321254 127 127 0
0.395204 0.219622 -0.321254 127 127 0
-0.705793 -0.308399 -0.320839 127 127 0
0.480382 0.436730 0.276783 76 153 0
-0.449273 -0.690663 -0.295921 153 0 76
-0.042895 -0.682442 -0.317074 127 127 0
-0.010200 -0.691110 0.002564 153 0 76
-0.653660 -0.557857 0.276659 76 153 0
-0.632849 0.410778 -0.321254 127 127 0
0.194100 -0.691110 0.036769 153 0 76
-0.090756 0.374635 -0.321254 127 127 0
0.723275 -0.056485 0.212656 127 0 127
-0.300662 -0.165035 0.276889 153 76 0
0.707671 -0.470681 -0.050116 127 0 127
-0.734389 0.086858 -0.055797 0 127 127
0.718398 -0.196249 0.026310 127 0 127
-0.116733 -0.051639 -0.321254 127 127 0
-0.718189 -0.540171 0.253972 0 127 127
-0.304309 0.566030 -0.147049 127 127 0
-0.307457 -0.136702 -0.321254 127 127 0
-0.164160 -0.691110 -0.047242 153 0 76
0.737200 0.326044 0.143370 127 0 127
0.532655 -0.565503 0.276632 76 153 0
-0.730270 -0.077218 0.209662 0 127 127
-0.481505 -0.243036 0.276889 153 76 0
0.167636 -0.031735 -0.321254 127 127 0
-0.510882 -0.079901 0.276793 153 76 0
-0.208046 0.291417 0.276878 204 51 127
-0.023703 0.566054 -0.242083 127 127 0
-0.037095 -0.067035 0.276889 76 153 0
0.345374 -0.555549 0.276439 76 153 0
0.342087 0.499126 -0.321172 127 127 0
0.251024 -0.355043 -0.321254 127 127 0
-0.121646 0.335456 -0.321254 127 127 0
0.547056 0.288637 -0.321254 127 127 0
-0.572510 0.324446 0.276816 204 51 127
0.261996 -0.479526 0.276889 76 0 153
0.652739 0.024761 0.276553 76 153 0
-0.235628 0.119188 -0.321254 127 127 0
-0.644793 0.566030 -0.118063 127 127 0
-0.702527 0.462864 0.305134 76 0 153
-0.139164 0.394294 -0.321254 127 127 0
0.402935 -0.240566 -0.321254 127 127 0
0.381404 0.566260 0.284291 127 127 0
0.589270 -0.691110 -0.048189 153 0 76
-0.019279 0.146350 -0.321254 127 127 0
-0.716022 -0.644036 -0.132925 0 127 127
-0.515613 -0.691110 -0.118336 153 0 76
0.411244 -0.102391 -0.321254 127 127 0
-0.322780 -0.488494 0.276033 153 76 0
0.250313 -0.025264 -0.321254 127 127 0
-0.293356 -0.621707 -0.321252 127 127 0
0.567661 0.482128 0.305482 76 0 153
0.002355 -0.691110 -0.096030 153 0 76
-0.424032 -0.414819 -0.321254 127 127 0
0.731009 0.159096 0.132546 127 0 127
0.522728 0.039744 -0.321254 127 127 0
0.191857 0.291225 -0.321254 127 127 0
-0.601317 -0.691110 0.137741 153 0 76
-0.733566 0.545472 0.317874 127 127 0
0.528363 -0.691110 0.188821 153 0 76
-0.441553 -0.691110 -0.015105 153 0 76
0.106086 0.566325 -0.270216 127 127 0
0.672602 0.566101 0.025741 127 127 0
-0.151062 -0.691077 0.237469 153 0 76
0.474003 0.552871 0.316023 127 127 0
-0.412435 0.566337 -0.271515 127 127 0
0.763220 0.498892 0.013992 127 0 127
-0.719595 -0.490702 0.100089 0 127 127
-0.723821 -0.331914 -0.277554 0 127 127
-0.285242 -0.394454 0.276083 153 76 0
-0.328737 -0.691110 -0.117404 153 0 76
-0.570047 0.367606 -0.321254 127 127 0
-0.611772 0.498559 0.313959 76 0 153
0.428842 0.029661 -0.321254 127 127 0
0.195876 0.566532 -0.021880 127 127 0
0.201857 0.566030 0.181838 127 127 0
-0.646916 0.566030 -0.067733 127 127 0
0.729571 0.129105 0.247541 127 0 127
-0.742372 0.413120 0.244736 0 127 127
-0.697272 -0.074231 -0.321064 127 127 0
0.159853 0.518404 0.312400 127 127 0
-0.544624 -0.450012 0.276889 153 76 0
0.736738 0.303723 -0.038090 127 0 127
0.135373 0.265795 0.276889 255 0 0
-0.348172 0.567029 0.111484 127 127 0
-0.721732 -0.417205 0.022754 0 127 127
-0.260654 0.566309 -0.006596 127 127 0
0.480292 0.566030 0.034981 127 127 0
0.708556 -0.468761 -0.179177 127 0 127
-0.227132 -0.307975 0.276853 153 76 0
0.702578 -0.617205 0.055787 127 0 127
0.129913 0.461717 0.301384 76 0 153
0.190354 0.164797 0.276387 255 0 0
0.728472 0.466543 0.346174 76 0 153
-0.674408 -0.682852 -0.316633 127 127 0
-0.081884 -0.267682 -0.321254 127 127 0
0.737553 0.335201 0.181999 127 0 127
0.651105 -0.691020 0.096864 153 0 76
-0.646922 0.492320 0.305036 76 0 153
-0.594716 -0.087240 -0.321254 127 127 0
-0.003862 -0.137951 -0.321254 127 127 0
-0.737273 0.201885 -0.106450 0 127 127
0.066384 0.566114 0.084097 127 127 0
-0.319454 -0.189993 -0.321254 127 127 0
0.409480 0.347591 -0.321254 127 127 0
-0.719001 0.567002 0.114395 127 127 0
-0.402769 -0.159709 0.276420 153 76 0
0.298673 -0.309072 -0.321254 127 127 0
-0.104610 -0.184460 0.276889 153 76 0
0.560812 0.566495 -0.229781 127 127 0
0.112252 -0.109531 0.276834 76 0 153
0.351003 0.566201 0.255632 127 127 0
-0.729589 -0.104570 0.186616 0 127 127
0.709140 -0.446300 0.074646 127 0 127
0.009717 0.566135 0.248700 127 127 0
-0.189881 -0.241496 0.276889 153 76 0
-0.327948 0.431433 -0.321254 127 127 0
-0.302900 0.566300 -0.007552 127 127 0
0.367049 -0.567708 0.276392 76 153 0
-0.726515 -0.227208 0.186948 0 127 127
-0.137316 0.566813 0.057565 127 127 0
0.525840 -0.691110 -0.174680 153 0 76
0.720623 0.566879 -0.169574 127 127 0
0.590589 0.004033 -0.321254 127 127 0
0.198844 0.566030 -0.225790 127 127 0
0.468810 0.566030 0.171969 127 127 0
-0.298967 -0.002429 -0.321254 127 127 0
0.419517 -0.452505 -0.321254 127 127 0
-0.504966 0.108328 0.276223 76 153 0
-0.556155 -0.412058 0.276889 153 76 0
0.633154 0.108501 0.276680 76 153 0
0.215699 0.333565 -0.321254 127 127 0
-0.370995 0.041667 0.276699 76 153 0
-0.227803 0.419733 -0.321254 127 127 0
0.157380 -0.429942 -0.321254 127 127 0
-0.729656 -0.101909 0.034613 0 127 127
-0.388445 0.048698 -0.321254 127 127 0
-0.383673 0.550947 0.316591 127 127 0
0.070138 -0.317101 -0.321254 127 127 0
0.609546 -0.322072 -0.321254 127 127 0
0.647815 0.125582 -0.321254 127 127 0
-0.728129 -0.162454 0.212444 0 127 127
0.182185 0.444739 0.276733 76 153 0
-0.739937 0.308186 0.063379 0 127 127
0.682440 0.054900 0.276501 76 153 0
0.107550 0.492954 0.297204 127 127 0
-0.760065 0.563708 -0.224130 127 127 0
-0.412854 0.264603 -0.321254 127 127 0
0.546420 -0.691110 -0.199885 153 0 76
-0.492370 0.389123 -0.321254 127 127 0
0.170586 0.484264 0.304418 76 0 153
0.741700 0.447453 -0.248075 127 0 127
-0.134732 0.543798 -0.320958 127 127 0
0.451116 0.137317 0.276762 76 153 0
-0.355655 -0.373867 -0.321254 127 127 0
0.388377 0.566121 -0.203821 127 127 0
-0.716249 -0.636690 -0.174781 0 127 127
0.177051 0.229682 0.276804 255 0 0
0.569843 0.445874 0.333548 76 0 153
0.707298 -0.505141 0.191746 127 0 127
0.083962 -0.097453 -0.321254 127 127 0
0.703042 -0.602075 -0.216323 127 0 127
0.687884 0.501334 0.298700 127 127 0
-0.134024 0.235853 0.276841 204 51 127
0.720734 -0.136976 -0.282456 127 0 127
0.722802 -0.076299 -0.078540 127 0 127
0.297056 0.566030 0.157867 127 127 0
0.776969 0.538951 -0.285683 127 127 0
0.721548 -0.112854 0.070760 127 0 127
0.719095 -0.181415 0.061386 127 0 127
0.717843 0.566656 -0.093081 127 127 0
0.734399 0.564703 0.024530 127 127 0
0.172353 0.144878 -0.321254 127 127 0
0.662277 -0.508438 0.276624 76 153 0
-0.570891 0.566854 0.246371 127 127 0
0.740820 0.543510 -0.320863 127 127 0
-0.253264 0.232282 -0.321254 127 127 0
-0.478511 0.362354 0.276720 76 153 0
-0.647481 -0.038262 -0.321254 127 127 0
0.287229 -0.285914 -0.321254 127 127 0
0.738060 0.349127 0.045187 127 0 127
0.718866 -0.020496 -0.316803 127 0 127
-0.719204 -0.508404 0.186566 0 127 127
0.435072 0.531665 0.315764 127 127 0
-0.082630 0.566113 0.246302 127 127 0
-0.459827 0.563830 -0.307832 127 127 0
0.500537 -0.559247 -0.321254 127 127 0
0.128711 -0.213917 -0.321254 127 127 0
0.668406 0.566030 0.073424 127 127 0
0.370173 -0.446197 0.276192 76 0 153
0.714842 -0.297059 0.130241 127 0 127
-0.235388 0.566581 0.021206 127 127 0
-0.716617 -0.622002 -0.031475 0 127 127
0.725714 0.007561 -0.106446 127 0 127
0.715142 -0.287217 0.191666 127 0 127
-0.699241 -0.686521 0.008862 153 0 76
0.067498 0.275366 0.276810 76 153 0
0.644530 0.189499 0.276451 76 153 0
-0.006650 0.476974 0.345659 76 0 153
-0.743449 0.449184 -0.190070 0 127 127
-0.183134 0.566030 0.223900 127 127 0
-0.580568 0.566030 -0.106115 127 127 0
-0.570426 0.566465 0.009369 127 127 0
-0.259849 -0.459178 0.275947 153 76 0
0.642391 0.566030 0.163125 127 127 0
0.130226 0.566257 0.024498 127 127 0
-0.731441 -0.030749 0.134580 0 127 127
-0.282137 0.442368 -0.321254 127 127 0
0.201508 0.149105 -0.321254 127 127 0
-0.716840 -0.607932 -0.279093 0 127 127
-0.126308 -0.644593 0.276501 76 153 0
-0.042117 0.565339 -0.302996 127 127 0
-0.772102 0.558567 0.035914 127 127 0
0.076797 -0.636097 -0.321251 127 127 0
-0.532372 -0.690677 -0.295183 153 0 76
0.029803 0.566030 0.115642 127 127 0
-0.604339 0.346521 0.276665 76 153 0
0.557675 -0.448764 -0.321254 127 127 0
0.501559 0.174885 -0.321254 127 127 0
-0.212807 0.496848 0.321682 76 0 153
0.255335 -0.561661 -0.321254 127 127 0
-0.374940 -0.686557 0.271253 153 0 76
-0.293392 -0.679287 -0.317955 127 127 0
0.204225 0.519799 -0.321127 127 127 0
-0.199747 -0.557930 0.276438 76 153 0
0.423527 -0.297896 -0.321254 127 127 0
0.703103 -0.605678 -0.059181 127 0 127
0.729275 0.101273 -0.085059 127 0 127
0.400591 -0.062441 0.276889 76 0 153
-0.076053 -0.691109 -0.242465 153 0 76
-0.744502 0.451929 0.186030 0 127 127
0.703666 -0.589718 0.047367 127 0 127
-0.249016 -0.521265 0.276050 153 76 0
-0.733512 0.051882 0.193303 0 127 127
0.723906 0.565865 -0.015813 127 127 0
0.391930 -0.175451 -0.321254 127 127 0
0.715204 -0.278300 -0.293426 127 0 127
-0.469490 0.499010 0.320810 76 0 153
-0.078089 -0.665070 -0.320983 127 127 0
0.704976 -0.557799 -0.130062 127 0 127
-0.061255 -0.167849 -0.321254 127 127 0
0.567628 0.216688 0.276603 255 0 0
-0.611695 -0.377797 0.276580 76 153 0
-0.209246 0.330133 -0.321254 127 127 0
0.361260 0.316277 0.276868 76 153 0
0.727287 0.061441 0.191611 127 0 127
0.724022 -0.032931 0.179777 127 0 127
0.516065 -0.522379 0.276755 76 153 0
0.593427 0.567029 -0.069860 127 127 0
-0.719857 -0.479637 0.163174 0 127 127
-0.376717 0.566030 -0.132601 127 127 0
-0.580796 -0.691110 -0.116801 153 0 76
-0.154357 -0.691110 0.094255 153 0 76
-0.397426 -0.691110 0.086128 153 0 76
-0.485984 -0.691110 -0.100291 153 0 76
0.508042 -0.691104 -0.260433 153 0 76
0.656757 -0.690611 -0.292424 127 0 127
-0.027683 0.566030 0.207118 127 127 0
0.303754 0.566431 -0.007999 127 127 0
-0.414750 -0.166551 -0.321254 127 127 0
0.706783 -0.506033 0.083720 127 0 127
0.494706 0.566030 0.198360 127 127 0
0.332618 0.565010 -0.304023 127 127 0
-0.679513 0.559749 0.313858 127 127 0
0.406514 0.094975 -0.321254 127 127 0
0.257688 -0.691110 0.197657 153 0 76
-0.145913 0.454768 0.337370 76 0 153
-0.715443 -0.658544 -0.265289 0 127 127
-0.342747 -0.468474 -0.321254 127 127 0
0.585491 0.117818 0.276866 76 153 0
-0.727513 -0.187408 0.195730 0 127 127
0.739361 0.385449 -0.090085 127 0 127
-0.471961 0.317783 0.276856 76 153 0
-0.155527 -0.381371 -0.321254 127 127 0
-0.109968 0.458722 -0.321254 127 127 0
0.647897 0.234421 0.276328 76 153 0
-0.401199 -0.030085 -0.321254 127 127 0
-0.724824 -0.294688 0.150784 0 127 127
-0.339437 0.566124 -0.249314 127 127 0
0.180083 -0.691110 -0.227875 153 0 76
-0.349418 0.230669 0.276606 204 51 127
0.376247 -0.008424 -0.321254 127 127 0
-0.653888 -0.427437 -0.321249 127 127 0
-0.599031 -0.690721 -0.292952 153 0 76
-0.453620 0.354057 0.276719 76 153 0
0.681605 -0.612644 0.276018 76 153 0
-0.116879 0.566030 -0.193747 127 127 0
0.198425 -0.361410 0.276889 76 0 153
-0.762243 0.493624 0.248351 0 127 127
0.480082 -0.455579 0.276797 76 0 153
-0.014791 0.438947 -0.321254 127 127 0
0.675930 -0.554353 0.276542 76 153 0
0.700866 0.329935 0.276301 76 153 0
-0.732672 0.018394 0.200035 0 127 127
-0.558039 0.567029 0.163152 127 127 0
-0.116533 0.566030 -0.131501 127 127 0
0.744348 0.562926 -0.309839 127 127 0
0.462125 0.229954 0.276806 255 0 0
-0.522299 -0.162146 0.276889 153 76 0
0.359014 0.168320 0.276485 255 0 0
0.251715 0.566030 0.053061 127 127 0
-0.738526 0.251849 0.077345 0 127 127
-0.748111 0.461340 0.058778 0 127 127
0.263193 -0.691110 -0.120966 153 0 76
-0.479314 0.540783 -0.320910 127 127 0
0.071193 0.335940 0.276666 76 153 0
-0.210488 0.190397 0.276722 204 51 127
0.576100 -0.691110 0.071699 153 0 76
0.507308 -0.547123 0.276673 76 153 0
-0.546057 -0.691110 -0.179184 153 0 76
-0.530512 -0.537978 -0.321254 127 127 0
0.717191 -0.225391 -0.256323 127 0 127
0.735611 0.274559 -0.032501 127 0 127
0.254126 0.506250 0.303646 127 127 0
-0.340182 0.566030 -0.207811 127 127 0
-0.153318 -0.068748 0.276889 153 76 0
0.181185 0.566152 0.020553 127 127 0
-0.374992 0.345813 -0.321254 127 127 0
-0.567166 0.078119 0.276279 76 153 0
-0.472346 -0.691110 0.019791 153 0 76
0.731641 0.178364 0.037831 127 0 127
0.153092 -0.681573 0.274896 76 153 0
-0.164372 -0.691110 -0.092055 153 0 76
0.337987 0.566853 -0.104185 127 127 0
0.635730 -0.584486 -0.321254 127 127 0
0.701274 -0.644235 0.259891 127 0 127
0.251087 -0.691110 0.150640 153 0 76
0.394578 0.472068 -0.321198 127 127 0
-0.655882 -0.691024 0.062488 153 0 76
0.771310 0.515099 0.190282 127 127 0
-0.758650 0.486368 0.070155 0 127 127
-0.493323 -0.382051 -0.321254 127 127 0
0.294711 0.306238 0.276888 255 0 0
-0.768597 0.542780 0.314131 127 127 0
0.110748 -0.248837 0.276889 76 0 153
0.325466 0.492044 0.324327 76 0 153
-0.261400 0.566112 -0.248050 127 127 0
0.392881 0.056795 -0.321254 127 127 0
-0.737344 0.254078 0.262686 76 153 0
0.174830 -0.685349 -0.315922 127 127 0
0.294252 -0.454423 0.276662 76 0 153
-0.398531 0.566354 0.256445 127 127 0
0.322610 -0.418472 0.276470 76 0 153
0.084877 0.566030 0.123709 127 127 0
0.725587 -0.003601 -0.025504 127 0 127
0.399788 0.068647 0.276551 76 153 0
-0.724528 -0.306468 -0.161092 0 127 127
0.144820 -0.691110 0.081317 153 0 76
-0.047379 -0.097139 0.276889 76 153 0
-0.538160 0.198218 0.276570 204 51 127
-0.564059 0.566030 -0.228692 127 127 0
0.707693 -0.496212 0.173007 127 0 127
0.476910 -0.691110 -0.084966 153 0 76
-0.564527 0.288329 0.276888 204 51 127
0.717776 -0.206461 -0.296682 127 0 127
0.164887 -0.515958 0.276889 76 153 0
0.562642 -0.459540 0.276718 76 0 153
-0.628737 0.566997 0.063779 127 127 0
0.188496 0.260106 -0.321254 127 127 0
0.076206 0.093214 0.276840 76 153 0
-0.547318 -0.686725 0.270840 153 0 76
0.725072 -0.008560 0.020771 127 0 127
0.710399 0.566629 0.002253 127 127 0
0.506776 0.222282 -0.321254 127 127 0
-0.719935 -0.476493 -0.183071 0 127 127
-0.588469 0.566328 -0.270540 127 127 0
-0.318909 -0.219213 0.276889 153 76 0
-0.740821 0.449833 -0.303853 0 127 127
0.423497 0.062745 -0.321254 127 127 0
0.610879 0.064833 -0.321254 127 127 0
0.530123 0.046073 0.276823 76 153 0
-0.716786 -0.615290 -0.159089 0 127 127
0.255220 0.566689 -0.087024 127 127 0
-0.006174 0.362222 -0.321254 127 127 0
-0.581099 0.532760 -0.321023 127 127 0
-0.189497 -0.412674 -0.321254 127 127 0
0.658445 0.567029 -0.119242 127 127 0
-0.737681 0.228950 -0.289784 0 127 127
0.429414 0.026447 0.276551 76 153 0
-0.207160 -0.597034 -0.321254 127 127 0
0.706023 -0.538186 0.130416 127 0 127
-0.720791 -0.328460 -0.316229 127 127 0
0.739826 0.413391 0.244973 127 0 127
0.242079 -0.691110 0.036990 153 0 76
0.774128 0.537221 0.009755 127 127 0
-0.117225 0.566687 0.032124 127 127 0
-0.517123 -0.256293 0.276889 153 76 0
0.382511 0.304025 -0.321254 127 127 0
-0.738227 0.239950 -0.127438 0 127 127
0.048696 -0.481179 0.276710 76 153 0
-0.120751 -0.671041 -0.320258 127 127 0
-0.079960 0.561775 -0.314141 127 127 0
-0.461880 -0.308375 0.276889 153 76 0
0.721719 -0.104553 -0.087876 127 0 127
-0.402403 -0.261684 0.276889 153 76 0
0.703562 -0.585902 0.259542 127 0 127
-0.041167 -0.525463 -0.321254 127 127 0
0.229141 0.448456 0.332491 76 0 153
-0.579948 0.082388 -0.321254 127 127 0
0.386803 -0.691102 -0.266855 153 0 76
-0.043249 0.062237 -0.321254 127 127 0
-0.655089 -0.688137 -0.307566 127 127 0
-0.548365 0.463522 0.303581 76 0 153
-0.131695 0.331965 0.276785 76 153 0
-0.312943 0.139693 -0.321254 127 127 0
0.741089 0.432570 -0.033211 127 0 127
0.603335 0.443476 0.327405 76 0 153
0.439591 0.179026 -0.321254 127 127 0
-0.316218 -0.121452 0.276811 153 76 0
-0.309957 0.567029 0.086475 127 127 0
0.503691 -0.691110 0.184821 153 0 76
-0.738040 0.232503 -0.241406 0 127 127
-0.694346 0.517122 -0.321235 127 127 0
-0.164734 0.566030 -0.181689 127 127 0
-0.674408 0.102848 0.276555 76 153 0
0.046144 -0.691110 0.115376 153 0 76
0.708162 -0.467010 0.111761 127 0 127
0.045826 0.448517 0.328181 76 0 153
0.140466 -0.194177 -0.321254 127 127 0
0.381720 -0.683908 -0.316664 127 127 0
0.645973 -0.423888 -0.321253 127 127 0
0.728696 0.096398 0.090329 127 0 127
0.736877 0.307520 0.100445 127 0 127
0.016445 0.492951 0.331923 76 0 153
0.484054 0.334230 0.276765 76 153 0
0.738114 0.345548 -0.023604 127 0 127
-0.416098 0.059815 -0.321254 127 127 0
0.508862 -0.691110 -0.202143 153 0 76
0.715749 -0.270252 0.153228 127 0 127
-0.241582 0.566833 0.047029 127 127 0
0.064495 -0.593028 -0.321254 127 127 0
-0.132413 0.137278 -0.321254 127 127 0
0.738825 0.374924 0.185825 127 0 127
0.152689 -0.691110 -0.024369 153 0 76
-0.527095 0.277242 -0.321254 127 127 0
-0.310640 -0.507942 0.275931 153 76 0
0.018808 0.566093 0.094722 127 127 0
-0.678107 -0.179630 0.276808 76 153 0
-0.647787 0.309583 -0.321254 127 127 0
-0.444452 -0.691110 -0.156939 153 0 76
0.735975 0.544373 0.317214 127 127 0
-0.261700 0.555546 -0.317873 127 127 0
-0.066144 0.516353 0.311593 127 127 0
-0.458592 0.027263 -0.321254 127 127 0
0.616514 -0.081695 -0.321254 127 127 0
0.042456 0.202433 0.276846 76 153 0
-0.738532 0.252092 -0.225054 0 127 127
-0.082111 -0.691110 -0.115523 153 0 76
-0.716720 -0.617934 -0.054756 0 127 127
0.211645 0.210596 -0.321254 127 127 0
-0.221715 0.564480 -0.305682 127 127 0
-0.721858 0.566345 -0.236980 127 127 0
0.701123 -0.656822 -0.067844 127 0 127
0.367689 0.268989 0.276583 255 0 0
-0.590309 -0.256976 -0.321254 127 127 0
0.524057 -0.642612 -0.321233 127 127 0
0.707032 0.466390 0.282263 76 153 0
0.195312 -0.463851 -0.321254 127 127 0
0.588416 0.566030 0.057253 127 127 0
0.250564 -0.091385 0.275890 76 0 153
-0.735675 0.138164 0.156588 0 127 127
0.585787 0.159645 -0.321254 127 127 0
-0.730728 -0.059200 -0.066779 0 127 127
0.345858 -0.681958 0.274848 76 153 0
-0.475255 -0.417567 -0.321254 127 127 0
0.707377 -0.488837 0.022625 127 0 127
-0.206325 -0.579908 0.276556 76 153 0
-0.186923 -0.120467 -0.321254 127 127 0
0.437527 0.566874 -0.131130 127 127 0
-0.613028 0.566030 -0.141887 127 127 0
0.411499 0.509448 -0.321108 127 127 0
0.584619 0.304242 0.276718 76 153 0
0.416146 0.442352 -0.321254 127 127 0
-0.529775 0.566030 -0.131789 127 127 0
0.512423 0.406945 0.276723 76 153 0
0.539536 0.198766 -0.321254 127 127 0
-0.243625 0.531220 0.318425 127 127 0
-0.714648 -0.188698 0.275504 76 153 0
0.706490 -0.514626 -0.014325 127 0 127
0.242038 -0.474744 0.276889 76 0 153
0.678749 0.432316 0.276601 76 153 0
0.576884 0.437713 -0.321254 127 127 0
0.488230 -0.620929 -0.321252 127 127 0
0.583460 0.566030 0.109907 127 127 0
-0.688703 -0.689059 0.098169 153 0 76
-0.193615 -0.489099 -0.321254 127 127 0
-0.694128 0.028970 -0.321121 127 127 0
-0.249886 0.468934 0.300103 76 0 153
0.711876 -0.370049 -0.263289 127 0 127
0.711337 -0.389215 0.112167 127 0 127
-0.715865 -0.645458 0.241242 0 127 127
0.527981 0.566030 0.093498 127 127 0
-0.352256 -0.329251 -0.321254 127 127 0
-0.739369 0.285503 -0.130148 0 127 127
-0.433247 -0.084166 -0.321254 127 127 0
0.347636 0.566374 -0.002206 127 127 0
0.667473 0.189616 0.276524 76 153 0
-0.742173 0.397383 0.000829 0 127 127
-0.706438 -0.127468 -0.320927 127 127 0
0.723574 -0.046120 -0.206143 127 0 127
-0.012461 -0.441502 -0.321254 127 127 0
0.527693 0.124007 -0.321254 127 127 0
-0.326877 -0.689802 0.263314 153 0 76
0.425870 -0.376787 0.276773 76 0 153
0.564379 0.566030 0.047394 127 127 0
0.076573 -0.691110 0.140434 153 0 76
0.332029 0.399952 0.276723 76 153 0
-0.665286 -0.690526 0.255534 76 153 0
0.710980 -0.386775 0.250840 127 0 127
0.701899 -0.638597 -0.045025 127 0 127
-0.568814 0.339921 -0.321254 127 127 0
-0.411560 -0.691110 -0.145965 153 0 76
-0.469315 0.105185 -0.321254 127 127 0
0.604535 -0.081717 0.276889 76 153 0
0.635431 -0.470495 0.276560 76 153 0
-0.562370 -0.437922 -0.321254 127 127 0
0.098962 -0.246166 -0.321254 127 127 0
-0.041630 0.389138 -0.321254 127 127 0
0.734922 0.262751 0.165258 127 0 127
0.280078 -0.691110 -0.212570 153 0 76
0.398415 0.566030 0.182602 127 127 0
-0.224256 -0.361623 0.276579 153 76 0
0.129265 -0.358902 0.276889 76 0 153
0.119021 -0.378166 -0.321254 127 127 0
0.617387 0.439799 0.276810 76 153 0
-0.191189 -0.315941 -0.321254 127 127 0
0.111899 0.466539 -0.321254 127 127 0
0.537494 -0.668927 0.276461 76 153 0
0.002616 0.563121 -0.309930 127 127 0
-0.087405 0.021454 0.276799 76 153 0
0.037121 0.072171 -0.321254 127 127 0
0.469439 0.566030 0.194806 127 127 0
0.252095 -0.689852 0.263193 153 0 76
-0.351246 0.474748 -0.321254 127 127 0
0.188561 -0.184580 0.276659 76 0 153
0.466169 0.056803 0.276623 76 153 0
-0.327399 -0.296724 0.276614 153 76 0
-0.511220 0.497913 0.331246 76 0 153
-0.427836 0.158472 0.276181 204 51 127
-0.745181 0.566634 0.216709 127 127 0
0.418152 0.261870 -0.321254 127 127 0
-0.383849 -0.195479 -0.321254 127 127 0
-0.673256 0.540410 0.318208 127 127 0
-0.718973 -0.522372 0.152911 0 127 127
-0.441229 -0.255516 -0.321254 127 127 0
-0.728246 -0.158184 -0.064974 0 127 127
0.126302 0.566030 -0.165220 127 127 0
-0.171489 -0.489646 -0.321254 127 127 0
0.175074 0.481158 0.343492 76 0 153
-0.740072 0.313583 -0.006995 0 127 127
-0.312362 -0.691110 0.171230 153 0 76
-0.150224 -0.691110 -0.013004 153 0 76
0.074278 0.527811 -0.321129 127 127 0
0.685480 0.567029 -0.152780 127 127 0
-0.189167 -0.691110 -0.172610 153 0 76
-0.541944 -0.012153 -0.321254 127 127 0
0.219543 -0.639395 0.276884 76 153 0
0.416935 -0.515639 -0.321254 127 127 0
0.766169 0.553309 0.039236 127 127 0
-0.524412 0.315924 -0.321254 127 127 0
0.112204 0.432822 0.276733 76 153 0
-0.214656 -0.691102 0.213550 153 0 76
0.734558 0.248282 0.085335 127 0 127
-0.043541 -0.630102 0.276719 76 153 0
-0.190268 -0.690901 0.246697 153 0 76
0.716506 -0.234603 -0.289372 127 0 127
-0.576801 0.512476 0.313808 127 127 0
-0.552888 -0.498319 0.276889 153 76 0
-0.140221 -0.691107 -0.250539 153 0 76
-0.723015 -0.366831 0.081980 0 127 127
0.228691 0.447635 0.276769 76 153 0
0.315668 0.488427 0.292688 127 127 0
0.082451 0.566211 0.293032 127 127 0
-0.457281 0.566722 0.035630 127 127 0
0.660326 0.179625 -0.321252 127 127 0
-0.496043 0.126924 0.276140 76 153 0
0.674287 -0.502748 -0.321013 127 127 0
0.713931 -0.258821 0.263648 127 0 127
-0.106117 0.566164 0.251780 127 127 0
-0.381196 0.566030 -0.211974 127 127 0
0.231597 0.566030 0.156034 127 127 0
-0.114044 -0.691110 -0.098205 153 0 76
-0.609819 -0.339685 0.276598 76 153 0
-0.742883 0.429098 0.118152 0 127 127
0.085483 -0.567806 0.276844 76 153 0
-0.209127 -0.544744 -0.321254 127 127 0
-0.191919 -0.394054 0.276570 153 76 0
0.614487 -0.691110 0.111397 153 0 76
-0.192033 -0.691110 0.122816 153 0 76
-0.378081 -0.240430 0.276889 153 76 0
0.600417 -0.202006 -0.321254 127 127 0
0.705689 -0.538317 -0.273631 127 0 127
-0.375226 -0.691110 0.009634 153 0 76
-0.589530 -0.561578 0.276828 76 153 0
-0.048384 0.455481 0.339425 76 0 153
-0.113679 0.521485 0.314891 127 127 0
-0.457284 0.397900 0.276473 76 153 0
-0.625034 0.462239 0.288283 76 153 0
-0.001165 -0.691110 0.020910 153 0 76
0.694328 0.538545 0.317163 127 127 0
0.637485 0.566030 0.197645 127 127 0
-0.146173 -0.265700 0.276889 153 76 0
0.395357 0.566030 0.152772 127 127 0
0.457424 -0.691100 0.215545 153 0 76
0.491494 0.460375 -0.321227 127 127 0
-0.395840 -0.360393 0.276747 153 76 0
-0.598667 -0.175959 0.276889 76 153 0
-0.619273 0.028660 -0.321254 127 127 0
-0.361747 -0.691110 0.103608 153 0 76
-0.074162 0.415204 -0.321254 127 127 0
-0.734157 0.077620 -0.096530 0 127 127
0.677509 0.270945 -0.321253 127 127 0
-0.718738 -0.536561 0.079443 0 127 127
0.135764 -0.079342 0.276559 76 0 153
-0.720027 -0.472838 -0.249867 0 127 127
-0.729314 -0.112574 -0.277276 0 127 127
-0.619486 -0.691110 -0.108325 153 0 76
0.117255 0.349527 0.276632 76 153 0
0.236337 -0.691110 -0.231916 153 0 76
-0.048325 -0.136713 -0.321254 127 127 0
0.132186 0.480033 0.344116 76 0 153
-0.475121 0.567029 0.105870 127 127 0
0.712434 -0.357365 0.225273 127 0 127
0.702640 -0.613482 0.255205 127 0 127
0.643495 -0.668267 -0.320858 127 127 0
0.485410 0.081038 -0.321254 127 127 0
0.397275 0.029200 -0.321254 127 127 0
0.409384 -0.691110 -0.060004 153 0 76
0.715045 0.486787 0.313956 76 0 153
-0.718248 0.476368 -0.320044 127 127 0
-0.691091 -0.688484 -0.234150 153 0 76
-0.741419 0.367280 0.059440 0 127 127
0.422242 -0.691110 0.152014 153 0 76
0.548501 -0.690665 -0.295781 153 0 76
-0.029905 -0.483434 0.276088 76 153 0
-0.027719 -0.691110 0.166420 153 0 76
-0.721646 -0.420482 0.127056 0 127 127
0.463089 0.485600 0.337585 76 0 153
-0.353645 0.459211 0.340234 76 0 153
-0.729005 -0.106279 0.261240 0 127 127
-0.251150 0.566030 -0.056323 127 127 0
-0.131402 -0.224010 0.276889 153 76 0
-0.738714 0.259587 0.217891 0 127 127
0.382950 0.289904 0.276665 255 0 0
-0.438514 -0.143154 0.276590 153 76 0
0.371818 -0.691110 -0.107605 153 0 76
0.018239 0.254088 -0.321254 127 127 0
-0.168087 0.566030 -0.059910 127 127 0
0.461450 -0.639840 -0.321250 127 127 0
-0.001158 0.566029 0.101342 127 127 0
-0.324570 0.566832 0.046889 127 127 0
0.036280 -0.691110 -0.182345 153 0 76
0.487187 0.535108 0.316464 127 127 0
0.540710 0.465276 0.346138 76 0 153
-0.479125 -0.691101 -0.269900 153 0 76
-0.251589 -0.691110 -0.164828 153 0 76
-0.423082 -0.222805 0.276842 153 76 0
0.662915 0.412173 -0.321254 127 127 0
-0.439419 -0.683318 0.274641 76 153 0
-0.263930 -0.691110 -0.092346 153 0 76
0.372868 -0.312242 0.276832 76 0 153
0.618927 0.100646 -0.321254 127 127 0
0.478606 0.372555 -0.321254 127 127 0
-0.243818 0.313107 0.276884 76 153 0
-0.549346 0.254906 0.276889 204 51 127
-0.302659 0.274865 0.276556 204 51 127
-0.724362 -0.313080 -0.234317 0 127 127
0.312674 0.520665 -0.321133 127 127 0
-0.514407 0.566030 -0.219940 127 127 0
0.234743 0.215584 0.276725 255 0 0
-0.081605 0.550306 0.316774 127 127 0
-0.330517 -0.662707 -0.321009 127 127 0
0.667435 -0.396738 0.276645 76 153 0
0.056378 0.168877 -0.321254 127 127 0
0.071805 0.566030 0.207617 127 127 0
-0.236930 0.451203 -0.321254 127 127 0
-0.648406 -0.691110 -0.091535 153 0 76
-0.178531 -0.354860 0.276857 153 76 0
-0.492974 0.566575 0.020641 127 127 0
-0.725575 -0.263586 0.224874 0 127 127
0.454512 0.490700 0.319957 76 0 153
0.528344 0.565226 -0.303347 127 127 0
-0.346249 -0.125969 -0.321254 127 127 0
-0.739148 0.276664 0.186469 0 127 127
0.165536 0.377766 0.276722 76 153 0
0.131398 -0.691110 -0.140022 153 0 76
0.089957 0.070058 -0.321254 127 127 0
-0.283914 0.566030 -0.132235 127 127 0
-0.180978 0.514019 0.310218 127 127 0
0.427421 -0.252090 -0.321254 127 127 0
0.531204 0.004827 0.276886 76 153 0
-0.638971 -0.007405 0.276453 76 153 0
0.607809 -0.466348 0.276560 76 153 0
-0.357015 0.566030 -0.185608 127 127 0
0.117592 -0.691110 -0.204787 153 0 76
0.653788 0.453586 0.278303 76 153 0
0.281703 -0.219737 0.276389 76 0 153
0.420559 -0.691110 -0.181831 153 0 76
0.141409 0.566318 -0.090908 127 127 0
-0.720727 -0.449430 0.215322 0 127 127
-0.739414 0.287307 -0.093521 0 127 127
-0.109534 0.535189 -0.321050 127 127 0
0.571361 0.566887 -0.185948 127 127 0
-0.243205 -0.009176 -0.321254 127 127 0
0.126608 0.566423 -0.055424 127 127 0
0.086557 0.475392 0.345758 76 0 153
-0.347593 0.356796 -0.321254 127 127 0
0.510733 -0.691110 0.005456 153 0 76
0.756956 0.563010 -0.158522 127 127 0
0.184224 0.016455 0.276254 76 153 0
0.190798 0.566030 0.109582 127 127 0
-0.667947 -0.255453 -0.321240 127 127 0
-0.643451 0.359034 0.276427 76 153 0
-0.487090 0.220036 -0.321254 127 127 0
-0.733980 0.070581 -0.151053 0 127 127
0.211757 0.363964 0.276722 76 153 0
0.063496 0.474634 0.345885 76 0 153
-0.512465 0.566915 0.055407 127 127 0
-0.495130 0.263271 0.276889 204 51 127
0.659121 0.564700 0.302725 127 127 0
0.770417 0.550397 -0.121591 127 127 0
-0.631605 0.037600 0.276509 76 153 0
-0.716006 -0.644414 -0.242014 0 127 127
-0.732715 0.566809 0.136642 127 127 0
-0.746118 0.456444 0.243549 0 127 127
0.394205 -0.691110 -0.212879 153 0 76
0.160210 0.561167 0.313526 127 127 0
0.029785 0.198106 -0.321254 127 127 0
0.706629 -0.508728 -0.083390 127 0 127
-0.736338 0.169588 -0.280383 0 127 127
0.681872 0.470338 0.283381 76 153 0
0.740901 0.564437 -0.047494 127 127 0
-0.727545 -0.186126 -0.241022 0 127 127
0.352165 0.021944 0.276448 76 153 0
0.441619 0.424978 -0.321254 127 127 0
-0.395524 0.566980 0.140253 127 127 0
-0.351033 0.566097 0.234899 127 127 0
-0.127176 0.563359 -0.309187 127 127 0
-0.718588 -0.543432 -0.267512 0 127 127
-0.300513 -0.615816 0.276554 76 153 0
0.312242 -0.446300 -0.321254 127 127 0
0.650317 0.566094 0.026438 127 127 0
-0.743140 0.442815 -0.259231 0 127 127
-0.593238 -0.421648 0.276760 76 153 0
0.616085 0.234554 0.276535 76 153 0
0.363312 0.283554 -0.321254 127 127 0
0.710085 -0.420932 0.035761 127 0 127
-0.543620 -0.648693 -0.321166 127 127 0
-0.435308 -0.582723 0.276795 76 153 0
0.419870 -0.249976 0.276889 76 0 153
0.108757 0.566030 0.234903 127 127 0
0.258432 0.560221 0.313919 127 127 0
-0.541914 -0.089450 -0.321254 127 127 0
0.254130 0.566030 -0.196217 127 127 0
0.187682 0.566119 -0.248833 127 127 0
0.721459 -0.117430 -0.240508 127 0 127
0.378493 0.566598 -0.147400 127 127 0
-0.310089 0.330974 0.276778 76 153 0
0.412330 -0.354342 -0.321254 127 127 0
-0.479311 0.146795 0.276067 204 51 127
0.540909 -0.691110 0.057470 153 0 76
0.194513 0.484985 0.305134 76 0 153
-0.158315 0.472310 0.299551 76 0 153
-0.254164 -0.248409 0.276889 153 76 0
-0.431777 0.492016 -0.321251 127 127 0
0.637840 0.567029 -0.114772 127 127 0
-0.414062 -0.369061 -0.321254 127 127 0
-0.734925 0.108249 -0.095659 0 127 127
0.638746 0.027984 -0.321254 127 127 0
0.587736 0.197407 0.276632 76 153 0
-0.257201 -0.486825 -0.321254 127 127 0
0.680990 -0.194684 0.276809 76 153 0
0.720016 -0.150527 0.098563 127 0 127
0.678419 -0.419533 -0.320921 127 127 0
0.703656 -0.587316 -0.187761 127 0 127
0.706359 -0.520666 -0.141729 127 0 127
-0.148993 0.299996 -0.321254 127 127 0
0.453796 -0.332119 0.276889 76 0 153
0.425187 0.479737 0.343122 76 0 153
0.728289 0.194464 -0.311101 127 0 127
0.346164 0.211734 0.276387 255 0 0
0.089262 0.447784 0.276740 76 153 0
0.004523 -0.407643 -0.321254 127 127 0
0.527539 -0.509079 -0.321254 127 127 0
0.244157 0.358855 -0.321254 127 127 0
0.610626 0.079260 0.276888 76 153 0
0.060916 0.065609 0.276752 76 153 0
-0.265245 0.207601 0.276630 204 51 127
0.134164 -0.238296 0.276889 76 0 153
-0.169469 -0.691110 0.019510 153 0 76
-0.010078 0.054164 -0.321254 127 127 0
-0.780335 0.541306 0.125478 127 127 0
-0.159417 -0.574969 0.276617 76 153 0
-0.169778 0.097871 -0.321254 127 127 0
0.609650 0.336056 0.276515 76 153 0
-0.425649 0.353435 -0.321254 127 127 0
0.683824 -0.687883 0.070705 127 0 127
0.483029 -0.025037 -0.321254 127 127 0
0.458338 -0.262335 0.276889 76 0 153
-0.492251 0.347696 -0.321254 127 127 0
0.580413 0.565800 0.299521 127 127 0
-0.352928 -0.071526 0.276452 153 76 0
0.495646 0.567029 -0.080051 127 127 0
-0.697042 0.538426 -0.321010 127 127 0
0.733171 0.217836 0.038033 127 0 127
0.079794 -0.691110 -0.125666 153 0 76
0.427420 -0.203396 0.276889 76 0 153
0.703989 -0.015231 0.276235 76 153 0
-0.363019 -0.691110 -0.091577 153 0 76
0.516674 -0.254647 -0.321254 127 127 0
0.725029 0.000190 0.180944 127 0 127
-0.306344 0.372552 -0.321254 127 127 0
0.333656 0.503967 0.302295 127 127 0
0.722450 -0.090421 0.005733 127 0 127
0.014651 -0.690706 -0.293703 153 0 76
0.357982 -0.418201 -0.321254 127 127 0
-0.640291 0.114351 0.276556 76 153 0
0.719361 -0.165295 -0.068041 127 0 127
0.438071 0.303807 0.276828 255 0 0
-0.369614 -0.066787 -0.321254 127 127 0
-0.271407 0.288115 -0.321254 127 127 0
0.366850 -0.144778 0.276826 76 0 153
-0.034026 -0.023395 0.276722 76 153 0
-0.296164 -0.691110 0.146349 153 0 76
0.673851 -0.176701 -0.321228 127 127 0
0.252854 -0.691110 -0.016188 153 0 76
0.699124 0.179531 -0.321034 127 127 0
0.047376 0.413788 0.276852 76 153 0
-0.727644 -0.182187 -0.036959 0 127 127
-0.222871 0.566029 0.204122 127 127 0
-0.727643 -0.182231 0.111264 0 127 127
0.178639 -0.691110 0.172604 153 0 76
0.733479 0.224941 -0.068303 127 0 127
-0.404761 0.248268 0.276879 204 51 127
0.774630 0.535460 0.036777 127 127 0
-0.736207 0.159375 0.155056 0 127 127
0.726853 0.030247 -0.209309 127 0 127
-0.736037 0.152586 0.035850 0 127 127
-0.531583 0.450534 -0.321254 127 127 0
-0.585725 0.566189 -0.018907 127 127 0
-0.738994 0.389678 0.265167 76 153 0
0.736547 0.499446 0.297318 127 127 0
-0.297938 -0.323323 0.276490 153 76 0
-0.758577 0.486236 -0.103839 0 127 127
0.724049 -0.044493 -0.082605 127 0 127
-0.702725 0.567029 0.163010 127 127 0
0.096284 0.355931 0.276604 76 153 0
0.153580 0.055733 0.276551 76 153 0
0.315611 0.446895 0.276797 76 153 0
-0.686254 0.567029 0.077449 127 127 0
0.435702 0.566197 0.255246 127 127 0
-0.191287 0.566315 0.149727 127 127 0
-0.208695 0.456951 -0.321254 127 127 0
-0.017175 -0.691087 0.231036 153 0 76
-0.371118 0.566030 -0.097665 127 127 0
0.731235 0.166054 0.216369 127 0 127
-0.083369 0.325062 -0.321254 127 127 0
0.709756 -0.421509 -0.082737 127 0 127
0.281090 -0.691083 0.236459 153 0 76
-0.376356 -0.170265 0.276723 153 76 0
0.735346 0.269258 0.143372 127 0 127
0.229073 -0.239149 -0.321254 127 127 0
0.037134 -0.261557 -0.321254 127 127 0
-0.238742 0.359011 0.276720 76 153 0
