ply
format ascii 1.0
element vertex 1254
property float x
property float y
property float z
property uchar red
property uchar green
property uchar blue
end_header
-0.776831 0.541010 0.215307 127 127 0
-0.033277 0.563123 -0.094503 127 127 0
0.669886 0.557781 0.315150 127 127 0
0.707329 -0.400731 0.054806 127 0 127
0.733244 0.305885 0.209414 127 0 127
-0.104518 0.563123 -0.274271 127 127 0
-0.621445 -0.283588 0.261259 76 153 0
0.151695 -0.687204 0.252598 153 0 76
0.616582 -0.431353 -0.317349 127 127 0
-0.715122 -0.525842 -0.019522 0 127 127
0.720302 -0.046996 -0.106907 127 0 127
-0.737031 0.348039 -0.137738 0 127 127
-0.076966 0.513645 0.195296 127 127 0
-0.048293 0.021482 0.270417 76 153 0
-0.227958 -0.299822 0.272983 153 76 0
0.644271 0.025229 0.272983 76 153 0
-0.220378 -0.687204 0.173303 153 0 76
-0.145466 0.563123 0.031352 127 127 0
-0.730522 0.088423 -0.089501 0 127 127
0.704971 -0.465024 -0.237304 127 0 127
-0.002913 0.240402 -0.317349 127 127 0
-0.449992 0.563123 0.282437 127 127 0
-0.368744 0.563123 0.146546 127 127 0
-0.400206 -0.636339 -0.317349 127 127 0
-0.641251 -0.084206 0.261259 76 153 0
0.700119 -0.597323 0.022138 127 0 127
0.251936 0.289852 0.272983 255 0 0
-0.609826 -0.470372 -0.317349 127 127 0
0.739305 0.471143 -0.092922 127 0 127
-0.607085 0.513832 -0.179683 127 127 0
0.240271 0.513532 0.021755 127 127 0
0.261045 0.112751 0.272983 76 153 0
0.725045 0.082330 0.122129 127 0 127
-0.588079 0.513826 0.076895 127 127 0
-0.043324 0.433871 0.272983 76 153 0
0.053345 0.006173 0.261259 76 153 0
-0.474691 -0.687204 0.250674 153 0 76
-0.299898 -0.607931 0.272983 76 153 0
-0.696453 0.563123 -0.059790 127 127 0
0.724175 0.058598 -0.212548 127 0 127
0.733440 0.311239 -0.092002 127 0 127
0.378840 -0.038082 -0.317349 127 127 0
0.117588 -0.223320 -0.317349 127 127 0
-0.313283 -0.687204 0.023479 153 0 76
-0.262618 0.515623 -0.255774 127 127 0
-0.453797 -0.687204 -0.061459 153 0 76
-0.132262 0.563123 -0.073756 127 127 0
-0.204457 0.005147 0.272983 76 153 0
-0.639647 -0.666025 -0.317349 127 127 0
0.559541 -0.114008 -0.317349 127 127 0
0.710521 -0.141965 0.272983 76 153 0
-0.043003 -0.585727 -0.317349 127 127 0
0.639604 -0.687204 -0.122299 127 0 127
-0.542947 -0.206357 0.272983 153 76 0
-0.258116 0.563123 0.059905 127 127 0
-0.717825 -0.228977 0.272983 76 153 0
0.414408 0.513470 0.225512 127 127 0
-0.718586 -0.387686 -0.124787 0 127 127
0.109870 0.516980 -0.052013 127 127 0
-0.740076 0.469495 0.115208 0 127 127
-0.178604 -0.147850 0.272983 153 76 0
0.260307 0.393683 -0.317349 127 127 0
-0.723229 -0.202495 0.084675 0 127 127
0.010890 0.193060 0.272983 76 153 0
0.739409 0.473991 0.226915 127 0 127
0.309190 0.513508 0.105314 127 127 0
-0.560832 0.254646 -0.317349 127 127 0
0.083602 0.063348 -0.317349 127 127 0
-0.386536 -0.687204 0.182614 153 0 76
-0.739311 0.439003 -0.068633 0 127 127
-0.029661 -0.093715 -0.317349 127 127 0
-0.040796 -0.610097 0.272983 76 153 0
0.697772 -0.661308 0.201538 127 0 127
0.129147 -0.687204 -0.125760 153 0 76
0.721431 -0.016215 -0.298997 127 0 127
-0.072734 -0.687204 0.151599 153 0 76
-0.539907 -0.338545 -0.317349 127 127 0
0.571143 -0.687204 -0.224051 153 0 76
0.006719 0.478446 0.345235 76 0 153
-0.627337 -0.687204 -0.139677 153 0 76
-0.039729 0.141665 -0.317349 127 127 0
0.619958 -0.600942 -0.317349 127 127 0
0.253153 -0.532229 0.272983 76 153 0
0.297600 0.513512 -0.057889 127 127 0
0.739297 0.470925 -0.195290 127 0 127
-0.368519 0.220566 -0.317349 127 127 0
-0.429741 -0.324000 0.272983 153 76 0
0.706363 -0.427066 -0.042894 127 0 127
-0.433319 0.513771 0.101163 127 127 0
-0.173714 0.513679 -0.226721 127 127 0
0.531833 0.513429 0.243060 127 127 0
-0.776831 0.524152 -0.220330 127 127 0
-0.726923 -0.055125 0.182647 0 127 127
-0.276066 0.513715 0.138968 127 127 0
0.367939 -0.656172 0.272983 76 153 0
-0.731588 0.130937 0.178401 0 127 127
-0.584987 0.513825 0.232234 127 127 0
-0.359908 0.563123 0.313547 127 127 0
-0.356887 -0.308495 -0.317349 127 127 0
-0.739407 0.478089 0.346331 76 0 153
0.040902 0.354203 0.264584 76 153 0
-0.215254 -0.485342 0.272983 153 76 0
0.702411 -0.534815 -0.085968 127 0 127
0.700216 -0.472717 0.272983 127 0 127
-0.322957 0.563123 -0.012583 127 127 0
0.460015 -0.687204 0.170511 153 0 76
0.044816 0.516743 0.085431 127 127 0
0.071106 0.563123 -0.315888 127 127 0
0.175182 -0.358630 -0.317349 127 127 0
-0.722426 -0.234516 -0.223889 0 127 127
-0.566204 -0.687204 0.114579 153 0 76
-0.505051 0.019374 -0.317349 127 127 0
-0.483085 -0.687204 -0.228742 153 0 76
-0.176337 0.212997 0.272983 204 51 127
0.696227 -0.687204 0.007246 127 0 127
0.747672 0.518184 0.007256 127 0 127
0.529575 -0.423763 0.272983 76 0 153
-0.090806 0.563123 0.312816 127 127 0
-0.712040 -0.648791 0.183937 0 127 127
0.014403 -0.266010 -0.317349 127 127 0
-0.427092 -0.687204 -0.149482 153 0 76
0.557628 0.563123 -0.145238 127 127 0
-0.557739 -0.117403 0.272983 153 76 0
0.042315 -0.687204 -0.262664 153 0 76
0.721764 -0.007141 -0.026135 127 0 127
0.593846 0.332062 -0.317349 127 127 0
-0.733184 0.194616 -0.236782 0 127 127
0.729986 0.217050 -0.257350 127 0 127
-0.737959 0.385076 -0.236151 0 127 127
-0.450036 -0.231555 0.272983 153 76 0
-0.628475 -0.687204 0.034986 153 0 76
-0.368902 -0.105173 0.272983 153 76 0
-0.646251 0.018631 0.262094 76 153 0
0.382942 0.513481 -0.020628 127 127 0
0.547796 0.304845 0.272983 255 0 0
0.506121 -0.284883 -0.317349 127 127 0
0.220346 -0.463102 -0.317349 127 127 0
-0.467623 0.458875 0.272983 76 153 0
0.429655 0.269066 0.272983 255 0 0
-0.304399 -0.687204 0.221199 153 0 76
0.372982 -0.109633 0.272983 76 0 153
0.252923 0.517501 0.239699 127 127 0
-0.094485 0.513651 0.091330 127 127 0
-0.499694 -0.393637 0.272983 153 76 0
-0.502474 0.563123 -0.315980 127 127 0
-0.685778 0.514082 -0.137762 127 127 0
-0.045615 -0.687204 -0.227950 153 0 76
-0.425494 0.515030 0.012951 127 127 0
0.341281 -0.687204 0.098946 153 0 76
0.505735 0.316445 -0.317349 127 127 0
-0.163073 0.472925 -0.317349 127 127 0
0.580397 0.475552 -0.317349 127 127 0
0.200554 -0.674137 -0.317349 127 127 0
0.135960 0.484076 0.272983 76 153 0
-0.415749 0.145381 -0.317349 127 127 0
-0.720356 -0.317072 -0.072083 0 127 127
0.218653 0.513540 -0.230679 127 127 0
-0.273126 0.366863 -0.317349 127 127 0
0.259833 0.012419 0.272983 76 153 0
-0.324333 0.052190 -0.317349 127 127 0
-0.726034 -0.090579 -0.106791 0 127 127
-0.729482 0.046915 -0.245130 0 127 127
0.396863 -0.586775 -0.317349 127 127 0
0.496386 0.181153 -0.317349 127 127 0
-0.127272 -0.328300 0.272983 153 76 0
-0.586996 0.118680 -0.317349 127 127 0
-0.234691 0.164909 -0.317349 127 127 0
0.217094 -0.687204 0.186699 153 0 76
0.366917 0.541069 -0.317349 127 127 0
0.270774 -0.159699 0.272983 76 0 153
0.425373 0.563123 -0.167247 127 127 0
-0.712988 -0.610972 -0.063086 0 127 127
0.369822 -0.687204 -0.233161 153 0 76
-0.193051 -0.681644 -0.317349 127 127 0
-0.570687 0.563123 -0.008774 127 127 0
-0.221360 0.513696 0.214959 127 127 0
-0.194728 0.513686 -0.108562 127 127 0
0.377626 0.563123 0.301083 127 127 0
-0.651965 0.211491 0.272983 76 153 0
0.148263 0.563123 0.134068 127 127 0
-0.175640 0.515940 0.312802 127 127 0
0.074053 -0.334754 0.272983 76 153 0
-0.123142 -0.455147 0.272983 153 76 0
-0.576650 -0.687204 -0.068168 153 0 76
0.118022 -0.232208 0.272983 76 0 153
-0.050964 -0.269196 0.261259 76 153 0
-0.552662 -0.687204 0.206062 153 0 76
-0.718287 -0.399611 0.058594 0 127 127
-0.231927 -0.687204 -0.106264 153 0 76
0.705923 0.561131 -0.317349 127 127 0
0.667370 0.482226 0.272983 127 127 0
-0.237954 -0.687204 0.076381 153 0 76
-0.737595 0.370543 0.214019 0 127 127
0.426638 0.026651 0.261259 76 153 0
0.684247 0.563123 -0.101910 127 127 0
-0.159376 -0.144471 -0.317349 127 127 0
-0.057724 0.123349 0.272983 76 153 0
0.121080 -0.491862 0.272983 76 0 153
0.566218 0.563123 0.151419 127 127 0
0.016388 -0.687204 0.182658 153 0 76
0.507787 -0.455143 -0.317349 127 127 0
0.535043 -0.095296 0.272983 76 0 153
-0.518562 0.320700 0.272983 204 51 127
0.612979 -0.515378 0.261259 76 153 0
-0.337799 0.171887 0.261259 204 51 127
-0.718099 -0.407129 -0.307411 0 127 127
0.626218 -0.329661 0.272983 76 153 0
0.643288 0.563123 0.050595 127 127 0
-0.417495 0.563123 -0.146447 127 127 0
0.512650 0.563123 -0.313294 127 127 0
-0.330582 -0.687204 -0.170478 153 0 76
0.475206 0.563123 0.092898 127 127 0
-0.644345 -0.284807 -0.317349 127 127 0
-0.309946 -0.687204 -0.253315 153 0 76
0.080982 -0.687204 0.056668 153 0 76
0.629650 0.047262 -0.317349 127 127 0
-0.736350 0.320890 -0.315587 127 127 0
0.703203 -0.513208 0.102479 127 0 127
-0.135633 -0.687204 -0.026356 153 0 76
-0.720814 -0.298821 0.196980 0 127 127
-0.557596 0.563123 -0.125154 127 127 0
0.124772 0.487744 -0.317349 127 127 0
-0.657574 0.410889 0.272983 76 153 0
0.128185 -0.527847 -0.317349 127 127 0
-0.292594 -0.560850 -0.317349 127 127 0
0.730416 0.228774 -0.123589 127 0 127
0.096989 0.468422 0.346034 76 0 153
0.220744 0.563123 0.087872 127 127 0
0.619626 -0.687204 0.079473 153 0 76
0.494183 -0.687204 -0.299400 127 127 0
0.688920 -0.480720 -0.317349 127 0 127
0.416654 -0.179867 -0.317349 127 127 0
0.085962 0.363173 -0.317349 127 127 0
-0.488745 -0.050170 0.272983 153 76 0
-0.135653 0.563123 0.162612 127 127 0
0.340651 -0.326599 -0.317349 127 127 0
0.445811 -0.687204 -0.138068 153 0 76
0.025449 0.513608 -0.063645 127 127 0
-0.136134 0.288151 0.272983 204 51 127
-0.191549 -0.007362 -0.317349 127 127 0
0.612171 0.563123 -0.219613 127 127 0
0.091449 -0.607997 0.261514 76 153 0
0.357849 -0.028416 0.272983 76 0 153
0.705730 -0.260132 0.272983 76 153 0
-0.008573 0.278827 0.272983 76 153 0
-0.170295 -0.447898 -0.317349 127 127 0
0.739621 0.479775 0.083492 127 0 127
-0.128922 -0.616984 0.272983 76 153 0
-0.313879 -0.481729 -0.317349 127 127 0
0.207111 -0.084649 0.272983 76 0 153
-0.096857 0.358025 -0.317349 127 127 0
-0.715113 -0.526199 -0.195570 0 127 127
0.255500 0.085199 -0.317349 127 127 0
-0.558341 -0.157214 -0.317349 127 127 0
0.009604 0.513614 0.204706 127 127 0
0.095747 0.563123 0.237543 127 127 0
-0.065269 -0.175277 -0.317349 127 127 0
0.271874 -0.687204 0.027612 153 0 76
0.409751 -0.495598 0.272983 76 0 153
-0.644593 -0.038456 -0.317349 127 127 0
0.126781 0.207046 -0.317349 127 127 0
0.341721 -0.281710 0.272983 76 0 153
0.316068 -0.687204 -0.060110 153 0 76
0.734445 0.338630 0.026867 127 0 127
0.197778 0.331293 -0.317349 127 127 0
-0.734733 0.256402 -0.072451 0 127 127
0.718357 -0.100027 0.203658 127 0 127
-0.002126 0.058645 -0.317349 127 127 0
-0.679098 0.055804 -0.317349 127 127 0
0.528345 0.518504 0.006329 127 127 0
-0.426901 0.286544 0.272983 204 51 127
0.170834 0.513556 -0.116344 127 127 0
-0.386796 0.563123 0.224682 127 127 0
-0.516981 0.150336 0.272983 204 51 127
-0.188614 -0.282630 -0.317349 127 127 0
0.712728 -0.253513 0.120843 127 0 127
-0.486140 -0.594429 0.261259 76 153 0
-0.242387 0.391075 0.261259 76 153 0
0.452006 0.439350 0.272983 76 153 0
0.587035 -0.167565 0.272983 76 0 153
-0.516264 0.188588 -0.317349 127 127 0
0.654739 0.378787 0.272983 76 153 0
0.008080 -0.687204 -0.068404 153 0 76
-0.706145 -0.687204 0.052105 153 0 76
0.431255 -0.164334 0.272983 76 0 153
-0.735245 0.276797 0.239117 0 127 127
-0.513134 0.563123 0.229224 127 127 0
0.548933 -0.687204 0.233730 153 0 76
-0.066939 -0.687204 0.061773 153 0 76
0.028562 -0.623107 -0.317349 127 127 0
-0.740067 0.469136 -0.265164 0 127 127
-0.277075 0.231606 0.272983 204 51 127
-0.482202 -0.255147 -0.317349 127 127 0
0.284194 0.449481 0.335446 76 0 153
-0.023586 -0.506534 -0.317349 127 127 0
0.541100 -0.025827 -0.317349 127 127 0
0.707599 -0.393359 0.208938 127 0 127
-0.029045 0.563123 0.036871 127 127 0
-0.490804 -0.687204 0.071482 153 0 76
0.159287 0.513561 0.203794 127 127 0
-0.703294 0.513866 0.223024 127 127 0
0.289572 0.563123 -0.198745 127 127 0
0.341075 0.134967 0.272983 76 153 0
0.272760 -0.611872 0.272983 76 153 0
-0.511477 0.513798 0.116921 127 127 0
-0.728916 0.024358 0.220128 0 127 127
-0.497744 0.415894 -0.317349 127 127 0
0.448799 0.563123 -0.069001 127 127 0
0.434080 0.189813 0.262051 255 0 0
0.704996 -0.185617 -0.317349 127 0 127
0.297402 -0.687204 -0.182186 153 0 76
-0.205471 0.513690 0.029412 127 127 0
-0.211021 0.087789 0.272983 76 153 0
0.157760 0.274073 0.272983 255 0 0
-0.397368 0.425950 0.272983 76 153 0
-0.413947 0.186704 0.262446 204 51 127
-0.711227 0.513989 0.058428 127 127 0
-0.289835 0.222270 -0.317349 127 127 0
-0.612739 -0.464278 0.264274 76 153 0
0.393248 -0.687204 -0.067155 153 0 76
0.711364 -0.290696 0.199022 127 0 127
0.509689 0.060930 0.272983 76 153 0
-0.724129 -0.166600 -0.092251 0 127 127
-0.396785 -0.687204 0.106038 153 0 76
0.311000 -0.683545 -0.317349 127 127 0
-0.577734 0.062966 0.262317 76 153 0
0.373185 0.389350 0.261259 76 153 0
-0.281255 0.558224 -0.317349 127 127 0
0.334221 0.240451 -0.317349 127 127 0
0.726951 0.134311 -0.261817 127 0 127
-0.113727 0.491741 0.272983 76 153 0
-0.720376 -0.316274 0.045582 0 127 127
0.222408 0.522775 0.315150 127 127 0
0.099283 0.071192 0.272983 76 153 0
-0.434657 -0.111084 -0.317349 127 127 0
-0.316040 0.563123 -0.227685 127 127 0
0.590290 0.169501 -0.317349 127 127 0
-0.730708 0.095822 0.100533 0 127 127
-0.516527 0.514698 -0.221246 127 127 0
0.009066 0.513614 -0.139266 127 127 0
-0.729523 0.048572 -0.159778 0 127 127
0.403322 0.046877 -0.317349 127 127 0
0.738411 0.446773 -0.297417 127 0 127
-0.721804 0.563123 0.167493 127 127 0
-0.061634 0.513639 -0.235349 127 127 0
-0.046914 -0.019535 -0.317349 127 127 0
-0.636056 -0.618463 0.272983 76 153 0
-0.718133 -0.405758 0.252910 0 127 127
0.155668 -0.395340 0.272983 76 0 153
-0.710050 -0.637190 -0.317349 127 127 0
0.680232 0.513376 0.197011 127 127 0
-0.601503 0.408518 -0.317349 127 127 0
0.706823 -0.414506 0.130064 127 0 127
0.113393 0.396098 0.261259 76 153 0
0.637386 -0.687204 -0.261050 127 0 127
-0.105019 -0.673704 -0.317349 127 127 0
-0.626813 -0.207238 -0.317349 127 127 0
-0.213910 0.563123 0.157859 127 127 0
0.725855 0.104426 0.198664 127 0 127
0.642644 -0.113762 -0.317349 127 127 0
-0.385277 0.441663 -0.317349 127 127 0
-0.688309 -0.687204 -0.184117 153 0 76
0.518171 -0.687204 0.009470 153 0 76
-0.216536 -0.574545 -0.317349 127 127 0
0.122696 -0.147604 -0.317349 127 127 0
0.023654 -0.359288 -0.317349 127 127 0
0.771171 0.514289 0.147590 127 127 0
-0.119644 -0.313527 -0.317349 127 127 0
0.160872 -0.687204 -0.048343 153 0 76
0.194927 -0.036949 -0.317349 127 127 0
-0.554527 -0.412193 -0.317349 127 127 0
0.216108 0.419907 0.272983 76 153 0
0.711008 -0.300408 -0.250912 127 0 127
-0.170655 0.313364 -0.317349 127 127 0
0.736351 0.390598 -0.075793 127 0 127
0.722966 0.025650 0.251737 127 0 127
-0.068763 -0.100752 0.261259 76 153 0
-0.142650 -0.687204 0.185140 153 0 76
-0.308049 -0.148372 0.272983 153 76 0
-0.733284 0.198584 0.026152 0 127 127
0.514418 0.150373 0.272983 255 0 0
0.380366 0.178948 -0.317349 127 127 0
-0.674746 -0.553488 -0.317349 127 127 0
0.320802 0.465905 0.272983 76 153 0
-0.336541 0.469221 0.345634 76 0 153
0.699290 -0.619913 -0.236356 127 0 127
-0.718028 0.563123 -0.303134 127 127 0
-0.154447 -0.520315 -0.317349 127 127 0
-0.445742 -0.512389 -0.317349 127 127 0
-0.398038 0.513758 -0.257076 127 127 0
-0.714221 -0.561808 0.097299 0 127 127
0.467935 -0.352175 0.272983 76 0 153
-0.630799 0.563123 0.199835 127 127 0
0.647657 0.508627 -0.317349 127 127 0
-0.607906 0.514365 0.306275 127 127 0
0.100884 0.513581 -0.166868 127 127 0
-0.636473 0.563123 0.102299 127 127 0
0.736762 0.401797 0.073349 127 0 127
0.256149 0.563123 -0.095612 127 127 0
-0.347025 -0.687155 -0.317349 127 127 0
-0.238663 -0.420791 -0.317349 127 127 0
-0.737020 0.347608 0.038478 0 127 127
0.698124 -0.640488 0.272983 76 153 0
-0.061938 -0.687204 -0.090789 153 0 76
-0.221321 0.469048 0.272983 76 153 0
-0.484734 0.316045 -0.317349 127 127 0
-0.714620 -0.545865 0.266732 0 127 127
0.458287 -0.343529 -0.317349 127 127 0
0.735911 0.378594 0.200862 127 0 127
-0.025083 -0.681347 0.272983 153 0 76
-0.368936 -0.582330 0.261259 76 153 0
-0.162690 0.563123 -0.160014 127 127 0
-0.236246 0.451740 -0.317349 127 127 0
-0.159082 0.513674 -0.026822 127 127 0
-0.634415 0.513842 -0.248474 127 127 0
-0.331208 0.563123 -0.147214 127 127 0
0.601622 0.513404 0.271452 127 127 0
-0.546958 -0.553067 0.272983 76 153 0
0.024107 -0.687204 0.007509 153 0 76
-0.111055 -0.388676 -0.317349 127 127 0
-0.374993 0.515214 -0.112007 127 127 0
0.397870 0.563123 0.164583 127 127 0
0.355613 0.110588 -0.317349 127 127 0
0.322169 0.513503 -0.126654 127 127 0
-0.325107 -0.024945 0.272983 76 153 0
0.457012 0.513455 -0.209687 127 127 0
-0.221080 -0.073593 -0.317349 127 127 0
0.134301 0.563123 -0.001725 127 127 0
-0.708646 -0.687204 0.246037 0 127 127
0.711692 -0.281761 -0.095579 127 0 127
0.395869 0.563123 0.043107 127 127 0
0.698160 -0.650738 -0.143716 127 0 127
0.432923 -0.687204 0.024771 153 0 76
-0.287976 0.515531 -0.180279 127 127 0
0.732717 0.291516 -0.269637 127 0 127
-0.443263 -0.687204 -0.288713 153 0 76
0.360452 0.563123 -0.247031 127 127 0
-0.568664 -0.035706 -0.317349 127 127 0
0.026994 0.563123 -0.258661 127 127 0
0.610996 0.518805 -0.082059 127 127 0
0.652541 0.115321 -0.317349 127 127 0
0.511271 0.513436 0.130112 127 127 0
-0.447357 0.514950 -0.086831 127 127 0
0.049000 -0.104376 -0.317349 127 127 0
-0.547848 -0.622500 -0.317349 127 127 0
-0.716769 -0.460155 0.010185 0 127 127
-0.748702 0.513880 -0.073737 0 127 127
-0.248548 -0.345354 -0.317349 127 127 0
0.773640 0.517244 -0.137323 127 127 0
-0.057347 -0.246395 -0.317349 127 127 0
0.286031 -0.687204 0.205818 153 0 76
-0.721601 -0.267433 0.128503 0 127 127
-0.273448 0.513714 -0.027117 127 127 0
0.422137 0.439739 -0.317349 127 127 0
-0.732211 0.155775 -0.119997 0 127 127
0.411857 -0.687204 0.109173 153 0 76
-0.071803 0.211991 -0.317349 127 127 0
-0.245952 0.563123 -0.104665 127 127 0
-0.652338 0.513848 -0.022651 127 127 0
0.572396 -0.687204 -0.068128 153 0 76
-0.401604 0.511772 0.272983 127 127 0
-0.210634 -0.214124 -0.317349 127 127 0
-0.339636 0.513738 0.188668 127 127 0
0.652436 -0.687204 -0.048791 153 0 76
0.285270 0.222300 0.272983 255 0 0
0.092335 0.563123 0.058305 127 127 0
0.224041 -0.376086 0.272983 76 0 153
-0.590706 0.454036 0.272983 76 153 0
0.130938 0.563123 -0.254155 127 127 0
0.276717 -0.157964 -0.317349 127 127 0
0.189256 -0.249165 0.272983 76 0 153
-0.159110 0.144182 0.272983 204 51 127
-0.300880 0.312638 0.272983 204 51 127
0.543050 -0.249995 0.272983 76 0 153
-0.392732 0.563123 0.071206 127 127 0
0.176352 -0.687204 0.099739 153 0 76
0.271356 0.563123 0.147644 127 127 0
0.323945 -0.413302 -0.317349 127 127 0
-0.428755 0.074099 -0.317349 127 127 0
-0.365679 0.037097 0.261259 76 153 0
0.612870 0.513400 0.174758 127 127 0
-0.350102 -0.447093 0.272983 153 76 0
-0.711156 -0.684034 -0.112399 153 0 76
-0.586975 0.539543 -0.317349 127 127 0
-0.082356 0.513646 -0.084845 127 127 0
-0.707686 0.514002 0.294821 127 127 0
0.118680 0.130336 -0.317349 127 127 0
-0.083426 0.509049 -0.317349 127 127 0
-0.712162 -0.643939 0.111307 0 127 127
0.730476 0.230425 0.106732 127 0 127
-0.158514 -0.684422 0.272983 76 153 0
0.583084 0.563123 0.009330 127 127 0
-0.153058 0.228016 -0.317349 127 127 0
0.195040 -0.015812 0.272983 76 153 0
0.645299 0.129751 0.272983 76 153 0
0.031510 0.510027 0.272983 127 127 0
-0.544906 -0.533276 -0.317349 127 127 0
-0.378357 0.339287 0.272983 76 153 0
-0.485740 -0.400316 -0.317349 127 127 0
-0.494733 0.514777 0.305528 127 127 0
0.361642 0.371625 -0.317349 127 127 0
0.710788 -0.306400 0.068521 127 0 127
-0.739349 0.440502 0.181086 0 127 127
-0.727558 -0.029797 0.108703 0 127 127
-0.615788 0.334928 0.272983 76 153 0
-0.322090 0.105009 0.272983 76 153 0
0.484963 0.563123 0.256828 127 127 0
0.210575 0.563123 0.208501 127 127 0
0.473557 -0.246560 0.272983 76 0 153
0.718215 -0.103910 -0.245413 127 0 127
-0.724666 -0.145150 0.168053 0 127 127
-0.346080 0.378297 -0.317349 127 127 0
-0.329953 0.515378 -0.276543 127 127 0
-0.552655 0.209812 0.272983 204 51 127
-0.715687 -0.503339 0.212013 0 127 127
0.700625 -0.583500 0.089994 127 0 127
-0.438349 0.513773 -0.195583 127 127 0
-0.286635 -0.687204 -0.046462 153 0 76
0.716665 -0.146172 -0.064049 127 0 127
0.277730 -0.297904 -0.317349 127 127 0
0.604715 0.403281 -0.317349 127 127 0
0.706560 0.314155 0.272983 76 153 0
-0.682657 0.149196 0.272983 76 153 0
-0.468399 -0.484528 0.272983 153 76 0
0.258541 0.563123 -0.022620 127 127 0
0.707624 0.563123 0.257678 127 127 0
0.725428 0.092768 -0.056699 127 0 127
0.232080 0.558082 -0.317349 127 127 0
-0.310227 0.563123 0.104937 127 127 0
-0.101302 -0.687204 -0.183999 153 0 76
0.619682 -0.583886 0.261259 76 153 0
-0.465309 0.563123 0.136829 127 127 0
-0.297529 -0.212669 -0.317349 127 127 0
0.407354 0.513473 -0.121127 127 127 0
-0.637900 0.563123 -0.143096 127 127 0
-0.033261 -0.539843 0.272983 76 153 0
-0.465595 0.563123 -0.021293 127 127 0
0.034660 0.563123 0.155577 127 127 0
0.381860 -0.369407 0.272983 76 0 153
0.365793 -0.524240 -0.317349 127 127 0
-0.716694 -0.463162 -0.058254 0 127 127
0.442738 0.469547 0.346113 76 0 153
0.633928 -0.687204 0.204796 153 0 76
-0.455758 0.020260 0.261259 76 153 0
0.193180 0.121690 0.272983 76 153 0
-0.361419 -0.368088 0.272983 153 76 0
-0.432897 0.563123 -0.311694 127 127 0
0.712350 0.563123 0.044232 127 127 0
0.628345 0.250327 -0.317349 127 127 0
0.500723 0.518404 -0.055826 127 127 0
-0.038742 0.519555 0.315150 127 127 0
0.709394 0.563123 -0.036908 127 127 0
-0.687103 -0.155794 -0.317349 127 127 0
-0.367590 0.513747 -0.027756 127 127 0
0.058058 -0.687204 -0.196682 153 0 76
0.678338 0.370427 -0.317349 127 127 0
-0.724824 -0.138861 0.045917 0 127 127
0.018551 -0.373832 0.272983 76 153 0
-0.497497 0.563123 -0.093781 127 127 0
0.239679 0.190658 -0.317349 127 127 0
-0.657186 0.135258 -0.317349 127 127 0
0.701415 0.513369 -0.146690 127 127 0
-0.406461 0.299901 -0.317349 127 127 0
-0.104284 0.391508 0.261259 76 153 0
0.637164 -0.525320 -0.317349 127 127 0
-0.167881 0.450983 0.330100 76 0 153
-0.080583 0.563123 0.241274 127 127 0
0.621327 -0.363639 -0.317349 127 127 0
0.055579 0.563123 -0.194294 127 127 0
0.734916 0.351468 -0.207888 127 0 127
-0.244139 -0.687204 -0.268499 153 0 76
0.548527 -0.687204 0.098357 153 0 76
0.238367 0.015777 -0.317349 127 127 0
-0.292640 -0.095878 -0.317349 127 127 0
0.491983 0.091112 -0.317349 127 127 0
0.728368 0.172943 0.229563 127 0 127
-0.098459 0.563123 -0.206345 127 127 0
0.360380 0.563123 0.107068 127 127 0
0.702649 -0.528317 0.216913 127 0 127
0.718701 -0.090662 0.062705 127 0 127
0.476165 -0.467161 0.272983 76 0 153
0.564026 0.489665 0.326325 76 0 153
0.087065 -0.687204 -0.312818 127 127 0
0.353083 0.513492 0.158346 127 127 0
0.490439 -0.531674 -0.317349 127 127 0
0.037023 -0.479075 0.261259 76 153 0
0.731677 0.563123 -0.247492 127 127 0
0.067907 -0.482554 -0.317349 127 127 0
0.069053 -0.687204 0.122480 153 0 76
0.123249 0.215556 0.272983 255 0 0
0.673852 0.563123 -0.185259 127 127 0
0.773640 0.529268 0.242119 127 127 0
0.202401 -0.624836 0.272983 76 153 0
0.492232 -0.624472 0.272983 76 153 0
0.131047 0.563123 -0.095214 127 127 0
0.077323 -0.398813 -0.317349 127 127 0
0.582620 0.248074 0.272983 76 153 0
-0.111669 -0.153615 0.272983 153 76 0
0.297599 0.563123 0.258480 127 127 0
0.726458 0.120866 -0.126252 127 0 127
0.067871 -0.087481 0.270116 76 153 0
0.497607 0.563123 -0.192185 127 127 0
0.058901 -0.687204 -0.116793 153 0 76
0.453386 0.513456 0.054476 127 127 0
0.715305 -0.183244 0.131882 127 0 127
-0.578435 -0.687204 -0.300210 127 127 0
-0.178800 -0.687204 0.032903 153 0 76
-0.540965 0.514609 0.030084 127 127 0
-0.365570 -0.687204 -0.021282 153 0 76
0.205869 -0.687204 -0.219778 153 0 76
0.728581 0.178739 -0.005429 127 0 127
-0.719053 -0.369043 -0.253188 0 127 127
0.112516 0.327342 0.272983 76 153 0
-0.760689 0.563123 0.047544 127 127 0
-0.729047 0.029574 0.075070 0 127 127
-0.508654 0.406201 0.272983 76 153 0
-0.116388 0.014802 0.272983 76 153 0
0.388624 0.311233 -0.317349 127 127 0
0.303167 0.511412 -0.317349 127 127 0
0.441416 0.513461 0.161968 127 127 0
0.146977 -0.121669 0.272983 76 0 153
0.682712 -0.409031 0.272983 76 153 0
0.126799 -0.005904 -0.317349 127 127 0
0.720132 -0.051645 0.131578 127 0 127
-0.473981 -0.687204 0.002821 153 0 76
-0.145212 0.092364 -0.317349 127 127 0
-0.337648 -0.615557 -0.317349 127 127 0
-0.267619 0.515605 0.267294 127 127 0
0.271653 -0.687204 -0.108709 153 0 76
0.656653 -0.179761 0.272983 76 153 0
-0.073485 0.268506 0.261259 204 51 127
0.258088 -0.642266 -0.317349 127 127 0
-0.443178 -0.045878 -0.317349 127 127 0
-0.381439 -0.374103 -0.317349 127 127 0
0.415050 -0.687204 0.222717 153 0 76
-0.719126 -0.366142 0.189071 0 127 127
-0.655225 0.481081 0.272983 76 153 0
0.542827 0.453942 0.272983 76 153 0
0.563837 -0.227042 -0.317349 127 127 0
0.277295 -0.539821 -0.317349 127 127 0
-0.407842 -0.267158 -0.317349 127 127 0
-0.727187 -0.044594 -0.259057 0 127 127
0.247679 -0.314918 0.272983 76 0 153
-0.599982 0.514394 0.144793 127 127 0
0.144452 -0.283059 -0.317349 127 127 0
-0.342207 -0.027624 -0.317349 127 127 0
-0.508973 0.513797 0.184537 127 127 0
0.703443 -0.506690 -0.180103 127 0 127
0.083469 -0.687204 0.205944 153 0 76
-0.288620 0.437642 0.272983 76 153 0
-0.731268 0.118187 -0.024831 0 127 127
-0.715728 -0.501693 0.140530 0 127 127
-0.324447 -0.153222 -0.317349 127 127 0
-0.014300 0.563123 -0.032103 127 127 0
0.491020 0.246194 -0.317349 127 127 0
0.722495 0.012791 -0.166216 127 0 127
-0.198187 -0.233882 0.272983 153 76 0
-0.201095 -0.067252 0.272983 153 76 0
-0.285458 -0.266282 0.272983 153 76 0
0.354553 0.513491 0.055779 127 127 0
-0.555022 0.563123 -0.190345 127 127 0
-0.031348 0.563123 0.195413 127 127 0
-0.729436 0.045100 -0.036684 0 127 127
0.402868 -0.109564 -0.317349 127 127 0
-0.723525 -0.190677 0.006939 0 127 127
-0.735461 0.285442 -0.158598 0 127 127
-0.723854 -0.177552 -0.254670 0 127 127
0.627709 0.563123 0.131225 127 127 0
0.013573 -0.167199 0.272983 76 153 0
-0.180540 -0.687204 -0.171956 153 0 76
-0.267424 0.302496 -0.317349 127 127 0
-0.733205 0.195452 0.180821 0 127 127
0.714057 -0.217273 -0.131064 127 0 127
-0.082620 -0.534736 -0.317349 127 127 0
0.730187 0.240903 -0.317349 127 0 127
-0.154843 0.350836 0.272983 76 153 0
0.090725 0.516910 0.009673 127 127 0
-0.589882 -0.687204 0.270428 153 0 76
0.730890 0.241705 0.203772 127 0 127
-0.027132 0.513627 0.081395 127 127 0
0.583564 -0.377988 0.272983 76 153 0
-0.704679 0.179334 -0.317349 127 127 0
0.184738 -0.200281 -0.317349 127 127 0
0.556995 -0.587433 -0.317349 127 127 0
0.720223 0.519203 0.304146 127 127 0
0.186074 -0.505242 0.272983 76 153 0
-0.702981 0.563123 0.099152 127 127 0
0.111421 0.516986 0.108611 127 127 0
-0.021531 0.461549 -0.317349 127 127 0
0.685590 -0.323026 -0.317349 127 127 0
0.701781 -0.552000 -0.023097 127 0 127
0.447455 -0.433633 -0.317349 127 127 0
-0.144067 0.513668 0.204022 127 127 0
-0.395310 -0.264759 0.272983 153 76 0
0.192426 0.563123 0.024942 127 127 0
-0.341105 0.563123 -0.079002 127 127 0
0.718586 -0.093788 -0.175369 127 0 127
0.333008 0.563123 -0.038754 127 127 0
0.575739 0.513413 -0.181019 127 127 0
0.345785 0.513495 0.238496 127 127 0
-0.138410 0.563123 0.094810 127 127 0
0.295561 0.513512 0.187710 127 127 0
0.378661 -0.461748 -0.317349 127 127 0
-0.040030 0.293753 -0.317349 127 127 0
-0.373890 -0.506243 0.272983 153 76 0
-0.241695 -0.138760 0.272983 153 76 0
-0.650854 0.279463 0.262833 76 153 0
0.031552 -0.626462 0.272983 76 153 0
-0.731712 0.135866 0.044627 0 127 127
0.650997 -0.687204 0.139874 153 0 76
-0.042130 -0.412837 -0.317349 127 127 0
-0.457126 0.128766 0.272983 76 153 0
0.182609 0.513552 0.102770 127 127 0
0.142454 0.513566 -0.216088 127 127 0
-0.220964 0.563123 -0.249744 127 127 0
0.066866 0.563123 -0.058399 127 127 0
-0.639258 0.080669 0.272983 76 153 0
-0.610121 -0.687204 0.166761 153 0 76
0.726012 0.563123 0.127791 127 127 0
0.284895 0.513516 -0.239025 127 127 0
0.222188 0.563123 -0.191292 127 127 0
0.728128 0.166381 -0.316287 127 0 127
0.237560 0.353461 0.272983 76 153 0
0.604907 0.513403 -0.263082 127 127 0
-0.479714 0.514832 -0.272786 127 127 0
0.166942 0.513558 -0.023578 127 127 0
-0.723518 0.563123 0.258526 127 127 0
0.564383 0.563123 0.221955 127 127 0
-0.215648 0.563123 0.262008 127 127 0
-0.271587 0.090942 -0.317349 127 127 0
-0.717002 -0.450870 -0.155973 0 127 127
0.557771 0.034841 -0.317349 127 127 0
-0.760002 0.513880 0.158971 127 127 0
-0.065697 0.563123 -0.148364 127 127 0
0.008776 0.513614 0.028679 127 127 0
-0.714166 -0.563996 -0.114793 0 127 127
-0.726752 -0.061967 -0.028556 0 127 127
0.145892 -0.687204 -0.289564 153 0 76
0.611779 -0.027081 0.261259 76 153 0
0.531380 0.563123 0.050161 127 127 0
0.231461 0.513535 -0.049475 127 127 0
0.682954 0.442711 0.318842 76 0 153
-0.306839 0.524356 0.315150 127 127 0
-0.713410 0.513981 -0.009571 127 127 0
-0.731073 0.110393 -0.249951 0 127 127
0.270426 -0.417841 0.272983 76 0 153
0.713279 -0.238473 -0.258952 127 0 127
-0.726166 -0.085351 -0.206861 0 127 127
0.704079 -0.489344 -0.042693 127 0 127
0.662997 0.242863 0.272983 76 153 0
0.550294 0.563123 -0.254968 127 127 0
0.268143 0.269371 -0.317349 127 127 0
-0.619956 0.468029 -0.317349 127 127 0
-0.241646 -0.366100 0.272983 153 76 0
-0.725029 0.385900 0.272983 76 153 0
0.631657 -0.687204 -0.183988 153 0 76
0.154713 0.281896 -0.317349 127 127 0
-0.006292 -0.316838 0.272983 76 153 0
-0.177785 -0.687204 -0.075734 153 0 76
0.444535 0.513459 -0.028576 127 127 0
-0.661694 -0.422020 0.272983 76 153 0
-0.727602 -0.028072 -0.131026 0 127 127
0.521976 -0.687204 0.177887 153 0 76
0.314694 -0.687204 0.266327 153 0 76
-0.515522 -0.687204 -0.055807 153 0 76
-0.552592 0.563123 0.089172 127 127 0
-0.126144 -0.000219 -0.317349 127 127 0
0.551442 0.513422 -0.098249 127 127 0
-0.739120 0.431361 -0.316125 127 127 0
-0.711402 -0.674259 -0.008281 0 127 127
0.142731 0.528891 0.315150 127 127 0
0.585214 0.040138 0.261259 76 153 0
-0.058927 -0.039685 0.261259 76 153 0
-0.723702 0.513944 -0.186598 0 127 127
-0.703467 -0.066243 -0.317349 127 127 0
-0.718628 -0.386010 -0.186517 0 127 127
0.428303 0.531697 -0.317349 127 127 0
0.031740 0.296051 -0.317349 127 127 0
-0.694918 0.513863 -0.268108 127 127 0
0.482707 -0.001096 0.272983 76 153 0
0.614513 0.513399 0.028370 127 127 0
0.364341 0.563123 -0.158907 127 127 0
-0.569927 -0.687204 -0.167896 153 0 76
0.192349 0.563123 -0.258297 127 127 0
-0.123620 -0.389742 0.272983 153 76 0
-0.238798 0.513702 -0.315509 127 127 0
0.684930 0.176898 0.272983 76 153 0
-0.139424 0.536467 -0.317349 127 127 0
-0.390076 0.563123 -0.219821 127 127 0
-0.648580 0.513847 0.065911 127 127 0
0.402016 0.513475 -0.247250 127 127 0
-0.197852 0.513687 -0.169897 127 127 0
-0.600428 0.514393 0.014778 127 127 0
-0.720807 -0.299084 -0.140399 0 127 127
-0.734566 0.249712 -0.007820 0 127 127
0.438789 -0.024933 -0.317349 127 127 0
0.699887 -0.603638 0.222380 127 0 127
0.199065 -0.687204 -0.096613 153 0 76
-0.763115 0.513880 0.268569 127 127 0
0.044356 0.513601 -0.290364 127 127 0
-0.262371 -0.014972 0.272983 76 153 0
0.285978 0.452577 -0.317349 127 127 0
-0.258604 -0.543126 0.272983 76 153 0
0.182108 -0.613706 -0.317349 127 127 0
-0.445159 -0.638458 0.272983 76 153 0
-0.034269 0.563123 -0.258654 127 127 0
0.426927 -0.640046 0.272983 76 153 0
-0.772540 0.563123 -0.271683 127 127 0
0.246882 -0.211262 -0.317349 127 127 0
-0.676528 -0.136217 0.272983 76 153 0
-0.715817 -0.498118 -0.255172 0 127 127
0.438316 -0.640615 -0.317349 127 127 0
-0.555871 -0.417275 0.272983 153 76 0
0.098178 -0.548536 0.272983 76 153 0
-0.717949 -0.413100 0.118434 0 127 127
0.466440 -0.139734 -0.317349 127 127 0
0.007574 0.513614 -0.229074 127 127 0
0.716140 -0.160485 0.017494 127 0 127
-0.624312 0.563123 -0.047194 127 127 0
0.726265 0.115590 0.060887 127 0 127
0.412329 -0.222059 0.272983 76 0 153
-0.549084 0.514580 -0.089696 127 127 0
-0.087773 0.563123 0.052240 127 127 0
0.707493 -0.396251 -0.152117 127 0 127
0.731267 0.251990 -0.067612 127 0 127
-0.722869 -0.216859 -0.048857 0 127 127
-0.001105 -0.017505 0.272983 76 153 0
-0.736245 0.316691 0.186501 0 127 127
0.473628 -0.110078 0.272983 76 0 153
0.530433 0.362897 0.272983 76 153 0
-0.720958 -0.293065 -0.250273 0 127 127
0.324858 -0.081188 -0.317349 127 127 0
-0.038720 -0.687204 0.214466 153 0 76
-0.661377 0.563123 -0.277635 127 127 0
0.731906 0.336707 -0.317349 127 0 127
-0.664016 -0.431874 -0.317349 127 127 0
-0.167534 -0.530060 0.272983 153 76 0
-0.491002 0.563123 -0.184178 127 127 0
-0.646792 -0.336902 0.272983 76 153 0
-0.651314 -0.687204 -0.245143 153 0 76
0.382973 0.563123 0.238410 127 127 0
-0.535640 0.484998 0.272983 76 153 0
0.639239 -0.245713 -0.317349 127 127 0
0.396536 0.078133 0.272983 76 153 0
0.678957 0.513376 0.049175 127 127 0
-0.465888 0.457730 0.337533 76 0 153
-0.373757 0.098314 -0.317349 127 127 0
-0.047857 0.513634 0.250777 127 127 0
0.542829 0.518557 0.184244 127 127 0
0.260841 0.462622 0.272983 76 153 0
-0.539517 0.513808 -0.277912 127 127 0
0.132814 0.018837 0.268016 76 153 0
0.734481 0.339606 -0.039138 127 0 127
0.438719 -0.687204 -0.276657 153 0 76
-0.575579 0.180032 -0.317349 127 127 0
0.017525 0.552591 0.315150 127 127 0
-0.236722 -0.428552 0.272983 153 76 0
-0.580332 -0.325532 0.272983 153 76 0
-0.324722 -0.665071 0.272983 76 153 0
0.036138 0.563123 0.232224 127 127 0
-0.392192 0.501087 -0.317349 127 127 0
-0.631438 0.563123 -0.203200 127 127 0
0.479819 0.302857 0.272983 255 0 0
0.514370 0.563123 -0.103964 127 127 0
0.058066 0.151238 0.272983 76 153 0
-0.717961 0.489045 -0.317349 127 127 0
0.679412 -0.606996 -0.317349 127 127 0
-0.109732 0.563123 -0.016540 127 127 0
-0.737832 0.380009 -0.077815 0 127 127
0.302359 0.513510 0.001650 127 127 0
0.737071 0.410241 -0.222766 127 0 127
-0.719913 -0.334762 -0.011118 0 127 127
0.577723 0.513412 -0.026719 127 127 0
0.478339 0.513448 0.213533 127 127 0
0.162493 0.513560 -0.272677 127 127 0
0.708429 -0.370722 -0.023545 127 0 127
-0.596639 0.563123 0.273938 127 127 0
0.734568 0.341991 0.153955 127 0 127
-0.240881 0.513702 0.091021 127 127 0
0.178153 0.461534 -0.317349 127 127 0
0.054763 0.218351 -0.317349 127 127 0
0.734049 0.327836 -0.149036 127 0 127
-0.712425 -0.633448 -0.230272 0 127 127
-0.664751 0.514158 -0.193895 127 127 0
-0.678971 -0.274602 0.272983 76 153 0
0.727531 0.150112 0.113570 127 0 127
0.336578 0.485062 0.339638 76 0 153
-0.401184 0.513759 0.152345 127 127 0
-0.670289 0.250485 -0.317349 127 127 0
0.693424 -0.687204 -0.097217 127 0 127
-0.004936 0.513619 0.146482 127 127 0
0.308152 -0.687204 0.148091 153 0 76
-0.461246 0.513781 0.251635 127 127 0
0.481760 0.490558 0.272983 127 127 0
-0.585497 0.477006 0.346331 76 0 153
-0.392137 0.563123 0.004268 127 127 0
0.716284 -0.156553 0.186358 127 0 127
0.702675 0.513368 -0.073583 127 127 0
0.538186 -0.644284 -0.317349 127 127 0
0.473986 0.409851 -0.317349 127 127 0
0.712671 -0.255069 0.014931 127 0 127
-0.434808 -0.074310 0.272983 153 76 0
-0.085810 -0.119916 -0.317349 127 127 0
-0.427559 -0.571670 -0.317349 127 127 0
0.106555 0.428244 -0.317349 127 127 0
0.723559 0.041805 -0.269077 127 0 127
0.705265 -0.457003 0.084810 127 0 127
0.710454 -0.315510 -0.145961 127 0 127
-0.766751 0.513880 0.079272 0 127 127
-0.543227 0.074433 -0.317349 127 127 0
0.535748 0.513427 -0.282928 127 127 0
0.500850 -0.687204 -0.173964 153 0 76
0.233569 0.563123 0.273010 127 127 0
0.409943 0.337061 0.272983 76 153 0
0.281449 0.563123 0.089798 127 127 0
0.250624 0.513528 0.101361 127 127 0
0.571304 0.158755 0.261259 255 0 0
0.497585 -0.687204 -0.098242 153 0 76
0.400781 0.481802 0.272983 127 127 0
-0.714709 -0.542331 0.042004 0 127 127
-0.297161 -0.344698 0.272983 153 76 0
-0.041153 0.516430 -0.173847 127 127 0
0.631276 0.432460 0.272983 76 153 0
-0.017207 0.381468 0.272983 76 153 0
0.261059 0.170115 0.261259 255 0 0
0.718808 -0.087739 -0.061222 127 0 127
0.199340 0.563123 -0.134990 127 127 0
-0.118398 -0.687204 0.033997 153 0 76
0.634482 -0.659649 -0.317349 127 127 0
0.701908 -0.548537 -0.224551 127 0 127
-0.618522 -0.687204 -0.027387 153 0 76
-0.588176 -0.300876 -0.317349 127 127 0
0.491998 0.563123 -0.251336 127 127 0
-0.714211 0.563123 -0.151746 127 127 0
-0.565894 -0.099346 -0.317349 127 127 0
0.119262 -0.291522 0.272983 76 0 153
0.669636 0.003348 -0.317349 127 127 0
-0.276127 0.513715 0.034700 127 127 0
-0.247211 0.513705 -0.138620 127 127 0
0.092312 0.513584 -0.108731 127 127 0
-0.318559 0.563123 0.268564 127 127 0
-0.740705 0.494582 -0.129263 0 127 127
-0.333338 0.515365 0.129070 127 127 0
-0.776024 0.563123 -0.059351 127 127 0
0.599376 0.342202 0.263823 76 153 0
0.723903 0.051200 0.073110 127 0 127
0.466555 -0.242414 -0.317349 127 127 0
-0.426517 -0.211751 -0.317349 127 127 0
-0.359770 -0.687204 0.058222 153 0 76
0.214793 -0.687204 0.007980 153 0 76
0.513924 0.523882 0.315150 127 127 0
0.769052 0.560441 -0.317349 127 127 0
-0.076571 0.563123 0.153182 127 127 0
-0.160419 0.563123 -0.258979 127 127 0
0.722516 0.013371 0.118894 127 0 127
-0.734144 0.232879 0.096056 0 127 127
0.739862 0.563123 -0.123251 127 127 0
0.371167 -0.224014 -0.317349 127 127 0
0.118725 0.563123 0.184426 127 127 0
0.720352 -0.045640 0.016988 127 0 127
-0.277980 -0.687204 0.168357 153 0 76
-0.134976 0.516088 -0.112064 127 127 0
-0.516276 0.013622 0.272983 76 153 0
-0.187657 -0.631785 0.272983 76 153 0
0.620783 0.563123 -0.117719 127 127 0
-0.482163 0.514823 0.023897 127 127 0
0.730160 0.221803 -0.199837 127 0 127
-0.062404 -0.422201 0.261259 76 153 0
-0.730489 0.087100 0.215854 0 127 127
-0.595133 -0.230751 0.272983 76 153 0
-0.738361 0.401115 0.077452 0 127 127
0.021062 0.112002 -0.317349 127 127 0
-0.389289 -0.147954 -0.317349 127 127 0
-0.586968 0.306671 -0.317349 127 127 0
0.706182 -0.431989 -0.286168 127 0 127
0.162490 -0.687204 -0.172634 153 0 76
-0.669398 0.514141 -0.080442 127 127 0
-0.570369 0.563123 -0.067449 127 127 0
-0.734534 0.248464 -0.256804 0 127 127
-0.194070 -0.687204 -0.239472 153 0 76
-0.711517 -0.088767 0.272983 76 153 0
0.514433 -0.687204 -0.239108 153 0 76
-0.294157 -0.687204 -0.110727 153 0 76
0.512358 0.513435 0.072528 127 127 0
0.193027 0.477887 0.272983 76 153 0
-0.121324 0.513660 -0.250503 127 127 0
0.254524 -0.102138 -0.317349 127 127 0
-0.201244 0.563123 0.067184 127 127 0
0.704764 0.503617 -0.317349 127 127 0
-0.538613 -0.687204 -0.242900 153 0 76
0.269532 -0.477328 0.272983 76 0 153
0.566129 -0.458493 -0.317349 127 127 0
0.336969 0.513498 -0.263367 127 127 0
0.767753 0.514856 -0.218452 127 127 0
0.189797 -0.413944 -0.317349 127 127 0
-0.031254 0.513628 -0.055247 127 127 0
-0.267085 0.563123 0.003439 127 127 0
0.731713 0.264143 0.050574 127 0 127
0.439070 0.179299 -0.317349 127 127 0
-0.713240 -0.600933 0.215073 0 127 127
0.004662 0.404144 -0.317349 127 127 0
0.314700 0.271651 0.272983 255 0 0
0.268868 0.563123 0.209142 127 127 0
-0.082821 0.104354 -0.317349 127 127 0
0.327071 -0.013783 -0.317349 127 127 0
0.499228 -0.564964 0.272983 76 153 0
-0.533305 -0.687204 0.264029 153 0 76
0.199305 0.513546 -0.167999 127 127 0
0.087867 0.563123 0.135334 127 127 0
-0.014857 -0.226793 0.272983 76 153 0
-0.573994 0.514489 -0.038087 127 127 0
-0.372633 -0.477554 -0.317349 127 127 0
0.352260 -0.512391 0.272983 76 153 0
-0.701565 0.027776 0.272983 76 153 0
-0.137633 0.422117 -0.317349 127 127 0
-0.416037 -0.687204 0.237351 153 0 76
-0.316070 0.563123 0.045847 127 127 0
-0.647346 -0.607648 -0.317349 127 127 0
0.647032 0.563123 -0.059091 127 127 0
0.259236 0.331785 -0.317349 127 127 0
0.058238 -0.230080 -0.317349 127 127 0
-0.113857 0.516165 0.028818 127 127 0
-0.278928 0.563123 -0.054288 127 127 0
-0.509764 0.563123 -0.251644 127 127 0
-0.113798 0.513657 0.145824 127 127 0
0.685981 -0.056371 -0.317349 127 127 0
-0.600753 0.563123 0.043602 127 127 0
-0.739899 0.462461 -0.016977 0 127 127
0.708987 -0.355520 -0.267025 127 0 127
0.404286 -0.687204 -0.177529 153 0 76
-0.735596 0.290797 0.112347 0 127 127
0.571407 -0.478370 0.272983 76 0 153
-0.527701 0.260486 0.272983 204 51 127
0.265314 0.563123 0.035669 127 127 0
0.694801 -0.687204 -0.262650 127 0 127
0.625896 0.518860 0.085960 127 127 0
0.228020 -0.324600 -0.317349 127 127 0
0.030529 -0.680214 -0.317349 127 127 0
-0.456293 -0.630914 -0.317349 127 127 0
-0.260965 0.032728 -0.317349 127 127 0
0.465853 0.513452 -0.269221 127 127 0
-0.491043 -0.539566 0.272983 76 153 0
-0.182898 -0.337011 0.272983 153 76 0
-0.723600 -0.187675 0.232829 0 127 127
0.119619 -0.687204 0.097559 153 0 76
0.173696 -0.494794 -0.317349 127 127 0
0.562591 -0.170818 -0.317349 127 127 0
0.003699 0.183206 -0.317349 127 127 0
0.404555 -0.326945 -0.317349 127 127 0
0.674723 -0.687204 0.060768 127 0 127
0.432339 0.563123 0.276632 127 127 0
0.722378 0.009617 -0.082123 127 0 127
0.627704 0.563123 0.278585 127 127 0
-0.699115 0.250522 0.272983 76 153 0
0.713633 -0.204660 0.272983 127 0 127
-0.244117 0.513704 -0.078405 127 127 0
0.662148 0.563123 0.177421 127 127 0
-0.738423 0.403583 -0.130957 0 127 127
0.702097 -0.543380 0.051026 127 0 127
-0.729142 0.033354 -0.099161 0 127 127
-0.737607 0.371015 -0.290234 0 127 127
-0.572133 0.513820 -0.228703 127 127 0
0.399663 0.139481 0.272983 76 153 0
0.322256 -0.687204 -0.262404 153 0 76
0.501543 0.413688 0.272983 76 153 0
0.652580 0.563123 -0.296297 127 127 0
-0.431733 0.199363 -0.317349 127 127 0
-0.442534 0.563123 0.225516 127 127 0
-0.668185 -0.036847 0.272983 76 153 0
-0.647601 0.513847 0.224939 127 127 0
-0.627916 0.358062 -0.317349 127 127 0
0.573177 -0.555625 0.272983 76 153 0
-0.187306 -0.687204 0.218328 153 0 76
-0.449114 0.563123 0.080960 127 127 0
-0.723124 -0.206691 -0.175750 0 127 127
0.406095 0.563123 -0.030047 127 127 0
-0.359324 -0.687204 0.235131 153 0 76
0.143324 0.448515 0.315001 76 0 153
0.074924 0.513591 0.223646 127 127 0
-0.017481 -0.205361 -0.317349 127 127 0
0.435077 0.563123 0.211934 127 127 0
-0.736942 0.344516 -0.197567 0 127 127
0.061884 0.211257 0.261259 76 153 0
0.660762 -0.050063 0.272983 76 153 0
0.284928 0.563123 -0.142874 127 127 0
0.725869 0.104797 -0.182164 127 0 127
-0.419044 -0.161871 0.272983 153 76 0
-0.736505 0.563123 -0.019768 127 127 0
-0.734251 0.237158 -0.201561 0 127 127
-0.144202 0.563123 0.297106 127 127 0
0.138692 0.346832 -0.317349 127 127 0
-0.713573 -0.587644 -0.198358 0 127 127
-0.310024 -0.337592 -0.317349 127 127 0
0.739588 0.478869 -0.249865 127 127 0
-0.310902 -0.215505 0.272983 153 76 0
0.767314 0.514928 -0.045178 127 127 0
-0.764204 0.563123 -0.183430 127 127 0
0.445541 0.315647 -0.317349 127 127 0
-0.518085 -0.211327 -0.317349 127 127 0
-0.550607 0.514574 -0.150323 127 127 0
-0.217644 0.342192 -0.317349 127 127 0
-0.018218 0.067510 0.272983 76 153 0
0.738965 0.461876 -0.029566 127 0 127
0.387241 -0.687204 0.058665 153 0 76
0.290682 0.328795 0.272983 76 153 0
-0.080815 -0.218285 0.272983 153 76 0
0.286709 0.060309 0.272666 76 153 0
0.159447 0.093620 -0.317349 127 127 0
-0.183361 0.513682 0.258571 127 127 0
0.612985 -0.637012 0.272983 76 153 0
0.157075 0.563123 0.071616 127 127 0
0.023452 0.563123 0.065756 127 127 0
-0.251116 0.563123 0.114177 127 127 0
0.332343 -0.146279 0.272983 76 0 153
-0.686365 0.343085 -0.317349 127 127 0
-0.199468 -0.627312 -0.317349 127 127 0
-0.174925 0.513679 -0.282526 127 127 0
0.700069 -0.598686 -0.112093 127 0 127
0.353742 -0.636041 -0.317349 127 127 0
0.773640 0.562931 0.028558 127 127 0
-0.038107 0.228653 0.272983 204 51 127
-0.732750 0.177274 -0.179169 0 127 127
0.706183 -0.431969 -0.193911 127 0 127
0.727251 0.447437 0.272983 76 153 0
-0.516580 0.563123 0.001470 127 127 0
0.224395 0.513537 -0.103547 127 127 0
-0.049605 -0.687204 -0.146028 153 0 76
0.710104 -0.325060 -0.059356 127 0 127
0.505060 0.563123 -0.020834 127 127 0
-0.051639 0.393250 -0.317349 127 127 0
-0.584862 -0.165080 0.272983 76 153 0
0.424273 0.563123 0.116630 127 127 0
-0.738137 0.392149 -0.019274 0 127 127
0.056615 0.494047 0.318562 76 0 153
-0.073503 -0.317308 0.272983 76 153 0
0.007792 -0.687204 -0.217562 153 0 76
0.064956 -0.214386 0.261259 76 153 0
-0.275513 0.513715 0.203976 127 127 0
0.082434 -0.589706 -0.317349 127 127 0
-0.659530 0.537516 0.315150 127 127 0
-0.707073 -0.687204 0.143800 153 0 76
-0.280353 0.563123 0.161177 127 127 0
0.314994 0.399389 -0.317349 127 127 0
0.513778 0.513435 -0.172107 127 127 0
0.706148 -0.432928 0.011214 127 0 127
-0.658464 -0.678507 0.272983 76 153 0
0.640966 0.518914 -0.207049 127 127 0
0.773640 0.514762 0.058882 127 127 0
0.287979 0.513515 0.055504 127 127 0
0.720777 -0.034056 0.218160 127 0 127
0.731848 0.267815 0.145854 127 0 127
-0.183498 0.515911 0.167049 127 127 0
-0.427496 0.066176 0.272983 76 153 0
0.143091 -0.637983 0.272983 76 153 0
-0.078109 -0.687204 -0.272563 153 0 76
0.121346 -0.367647 -0.317349 127 127 0
0.526534 0.563123 0.109453 127 127 0
0.555458 0.563123 -0.199124 127 127 0
-0.410965 0.545396 0.315150 127 127 0
-0.044107 0.453749 0.337218 76 0 153
0.096900 -0.665953 0.272983 76 153 0
0.275555 -0.436908 -0.317349 127 127 0
0.233055 0.066761 0.272983 76 153 0
-0.736434 0.324242 -0.089460 0 127 127
0.575552 0.513413 0.133052 127 127 0
0.392940 -0.547587 0.272983 76 153 0
0.705682 -0.445625 0.226846 127 0 127
-0.713703 -0.582463 -0.017493 0 127 127
0.256625 0.138959 -0.317349 127 127 0
-0.330487 0.515376 0.011169 127 127 0
-0.187288 0.563123 -0.088996 127 127 0
0.554622 -0.314621 -0.317349 127 127 0
-0.722125 -0.246539 0.054041 0 127 127
0.108640 0.563123 -0.202274 127 127 0
-0.266631 0.098492 0.272983 76 153 0
0.303016 -0.020568 0.272983 76 153 0
0.672005 0.563123 0.002839 127 127 0
-0.400203 -0.687204 -0.089735 153 0 76
0.716513 -0.150305 0.082384 127 0 127
-0.697581 -0.273490 -0.317349 127 127 0
0.629374 0.076704 0.272983 76 153 0
-0.170449 0.044790 0.261259 76 153 0
0.162532 0.176953 0.261259 255 0 0
0.355448 0.517874 -0.066305 127 127 0
-0.225223 0.497039 0.323506 76 0 153
0.710421 -0.316406 -0.199413 127 0 127
-0.040752 0.513632 -0.118407 127 127 0
-0.729546 0.049487 -0.300870 0 127 127
0.376472 -0.422573 0.272983 76 0 153
0.240907 0.479660 0.343871 76 0 153
0.581236 -0.287330 0.272983 76 0 153
0.709554 -0.340059 0.219301 127 0 127
0.716641 -0.146832 -0.277134 127 0 127
0.023255 0.563123 -0.089132 127 127 0
0.380323 -0.600205 0.261259 76 153 0
-0.239882 0.513702 -0.203260 127 127 0
-0.711034 0.513990 0.119711 127 127 0
-0.726279 -0.080829 0.063111 0 127 127
-0.331435 -0.687204 0.175268 153 0 76
-0.279171 -0.465956 0.272983 153 76 0
0.211157 0.255546 0.272983 255 0 0
-0.731621 0.132244 0.260532 76 153 0
-0.687714 -0.687204 -0.308360 153 0 76
-0.190955 0.125032 -0.317349 127 127 0
-0.562913 -0.687204 0.061399 153 0 76
0.698613 -0.638362 0.153483 127 0 127
-0.183107 0.563123 -0.209367 127 127 0
0.243742 -0.042563 0.272983 76 0 153
0.659669 -0.286749 0.272983 76 153 0
-0.017977 -0.687204 0.041017 153 0 76
-0.208008 0.350181 0.272983 76 153 0
-0.240691 0.043050 0.261259 76 153 0
0.009872 -0.429515 0.272983 76 153 0
-0.436020 0.513772 -0.140474 127 127 0
-0.245347 -0.611852 0.272983 76 153 0
0.709186 -0.350091 0.038529 127 0 127
0.216054 -0.687204 0.060975 153 0 76
-0.548469 0.107733 0.272983 76 153 0
-0.718591 0.563123 0.311360 127 127 0
-0.668516 -0.333308 -0.317349 127 127 0
-0.159309 0.041014 -0.317349 127 127 0
0.235531 -0.201822 0.272983 76 0 153
0.206703 0.563123 0.138887 127 127 0
0.633055 0.519796 0.315150 127 127 0
-0.489991 -0.125398 -0.317349 127 127 0
-0.243234 -0.687204 0.221000 153 0 76
-0.420802 -0.592639 0.261259 76 153 0
-0.492113 -0.191991 0.272983 153 76 0
-0.416977 -0.472569 0.272983 153 76 0
0.713985 0.519180 -0.212709 127 127 0
-0.635755 -0.516354 -0.317349 127 127 0
-0.088506 -0.623604 -0.317349 127 127 0
-0.411257 0.563123 0.177775 127 127 0
-0.370654 0.496412 0.313940 127 127 0
0.464740 0.563123 -0.130194 127 127 0
-0.454120 -0.687204 0.198981 153 0 76
-0.593690 -0.064725 0.272983 76 153 0
0.641366 0.513390 0.236855 127 127 0
0.040902 0.301610 0.270512 76 153 0
-0.503816 0.480856 -0.317349 127 127 0
-0.480382 -0.687204 -0.176150 153 0 76
-0.654616 0.563123 -0.093161 127 127 0
0.723805 0.048526 0.196164 127 0 127
0.686978 0.563123 0.092151 127 127 0
0.717649 0.519194 0.155512 127 127 0
-0.205706 -0.687204 0.117950 153 0 76
-0.739442 0.444204 -0.218521 0 127 127
0.105460 -0.687204 -0.172710 153 0 76
-0.376115 -0.687204 -0.136637 153 0 76
0.715073 -0.189558 -0.181581 127 0 127
-0.565664 0.563123 0.230933 127 127 0
-0.449653 -0.377591 0.272983 153 76 0
-0.342733 -0.247281 -0.317349 127 127 0
0.322543 -0.687204 0.043985 153 0 76
