-0.351447 -0.577012 -0.313231 0.300000 0.000000 0.600000
0.060171 -0.401015 -0.307021 0.300000 0.000000 0.600000
0.180232 -0.530890 0.320192 0.500000 0.000000 0.500000
0.625025 0.464942 0.305535 0.500000 0.000000 0.500000
-0.393113 -0.091540 -0.313231 0.300000 0.000000 0.600000
-0.096758 0.347280 -0.307021 0.300000 0.000000 0.600000
0.346966 0.080155 -0.313231 0.300000 0.000000 0.600000
-0.606800 -0.295146 -0.333931 0.600000 0.000000 0.300000
-0.191817 0.747221 0.236049 0.300000 0.000000 0.600000
-0.355925 -0.645431 0.320192 0.500000 0.000000 0.500000
0.390202 -0.513115 -0.026933 1.000000 0.000000 0.000000
0.580506 -0.697648 0.317315 0.500000 0.000000 0.500000
0.467711 0.229913 0.287072 0.500000 0.000000 0.500000
0.400692 0.489905 -0.313231 0.300000 0.000000 0.600000
0.629442 0.156410 -0.137778 0.300000 0.600000 0.000000
0.629442 -0.268124 -0.324434 0.300000 0.600000 0.000000
-0.612565 0.654334 -0.087631 0.600000 0.000000 0.300000
-0.071094 0.747221 -0.312916 0.300000 0.000000 0.600000
-0.612565 0.129814 -0.067889 0.600000 0.000000 0.300000
0.003857 -0.657619 -0.313231 0.300000 0.000000 0.600000
-0.607970 -0.593092 0.320192 0.500000 0.000000 0.500000
-0.091583 -0.454632 -0.116380 1.000000 0.000000 0.000000
-0.235597 -0.701788 0.110119 0.600000 0.300000 0.000000
0.114164 -0.063332 0.287072 0.500000 0.000000 0.500000
-0.132317 -0.456625 0.320192 0.500000 0.000000 0.500000
-0.440904 -0.701788 -0.117839 0.600000 0.300000 0.000000
-0.579445 -0.245596 0.089418 0.600000 0.000000 0.300000
-0.170532 0.332983 0.287072 0.500000 0.000000 0.500000
0.596322 -0.350289 0.097071 0.300000 0.600000 0.000000
0.346307 -0.037883 0.287072 0.500000 0.000000 0.500000
0.393806 -0.475258 0.202066 1.000000 0.000000 0.000000
-0.031505 -0.179339 -0.313231 0.300000 0.000000 0.600000
-0.579445 0.570992 0.138454 0.600000 0.000000 0.300000
-0.380295 -0.368750 0.320192 0.500000 0.000000 0.500000
0.124138 0.374191 0.287072 0.500000 0.000000 0.500000
-0.567471 0.221601 0.138952 0.000000 0.500000 0.500000
0.084582 -0.701788 -0.096786 0.600000 0.300000 0.000000
-0.380996 0.747221 -0.216523 0.300000 0.000000 0.600000
0.106927 0.189232 -0.138381 0.500000 0.500000 0.000000
0.425063 -0.137538 -0.307021 0.300000 0.000000 0.600000
0.596322 0.086131 0.104847 0.300000 0.600000 0.000000
-0.579445 -0.489183 0.122180 0.600000 0.000000 0.300000
0.507355 -0.235559 0.320192 0.500000 0.000000 0.500000
0.545438 0.747221 0.085760 0.300000 0.000000 0.600000
0.243842 -0.402240 -0.146954 1.000000 0.000000 0.000000
0.131908 0.189232 0.119634 0.500000 0.500000 0.000000
0.399123 0.714100 -0.253919 0.300000 0.000000 0.600000
0.435374 0.259120 -0.218421 0.000000 0.000000 1.000000
0.007673 0.534956 -0.307021 0.300000 0.000000 0.600000
-0.290616 -0.523949 -0.081530 1.000000 0.000000 0.000000
0.629442 -0.499603 -0.333371 0.300000 0.600000 0.000000
0.393897 -0.701788 -0.122413 0.600000 0.300000 0.000000
-0.173015 0.187162 -0.173356 0.500000 0.500000 0.000000
0.352244 0.690507 0.320192 0.500000 0.000000 0.500000
-0.382094 0.743080 0.318862 0.500000 0.000000 0.500000
0.077978 -0.335058 0.320192 0.500000 0.000000 0.500000
0.137977 -0.701788 0.173036 0.600000 0.300000 0.000000
-0.152756 -0.522500 -0.313231 0.300000 0.000000 0.600000
-0.391975 0.420212 -0.307021 0.300000 0.000000 0.600000
0.195497 -0.401358 0.149280 1.000000 0.000000 0.000000
-0.420077 -0.370613 -0.313231 0.300000 0.000000 0.600000
0.184207 0.714100 -0.123169 0.300000 0.000000 0.600000
-0.612565 -0.496595 -0.315509 0.600000 0.000000 0.300000
-0.203325 0.187162 0.152558 0.500000 0.500000 0.000000
0.151450 0.038927 -0.307021 0.300000 0.000000 0.600000
-0.492500 0.256756 -0.164654 0.000000 0.000000 1.000000
-0.211009 0.714100 -0.102387 0.300000 0.000000 0.600000
0.596322 0.398406 -0.109441 0.300000 0.600000 0.000000
-0.019710 0.714100 0.145883 0.300000 0.000000 0.600000
-0.047281 -0.701788 0.053925 0.600000 0.300000 0.000000
-0.200865 -0.054723 -0.307021 0.300000 0.000000 0.600000
-0.612565 -0.627672 -0.062331 0.600000 0.000000 0.300000
0.156101 0.568896 0.287072 0.500000 0.000000 0.500000
-0.045719 -0.405228 0.143565 1.000000 0.000000 0.000000
-0.556506 0.138216 0.320192 0.500000 0.000000 0.500000
0.596322 -0.541664 0.170665 0.300000 0.600000 0.000000
-0.197247 -0.043280 0.287072 0.500000 0.000000 0.500000
0.555037 0.747221 -0.145987 0.300000 0.000000 0.600000
0.629442 -0.173347 0.185365 0.300000 0.600000 0.000000
-0.515778 0.568082 -0.313231 0.300000 0.000000 0.600000
0.629442 0.586219 0.146635 0.300000 0.600000 0.000000
0.245413 -0.668668 0.001786 0.600000 0.300000 0.000000
-0.584543 -0.130646 0.320192 0.500000 0.000000 0.500000
0.577337 -0.651725 -0.121375 0.300000 0.600000 0.000000
0.334092 0.187162 0.161140 0.500000 0.500000 0.000000
0.438332 -0.542899 -0.231233 1.000000 0.000000 0.000000
0.596322 -0.253256 -0.135875 0.300000 0.600000 0.000000
-0.579445 -0.102897 -0.332356 0.600000 0.000000 0.300000
-0.585487 0.747221 0.079415 0.600000 0.000000 0.300000
-0.549275 0.564950 0.320192 0.500000 0.000000 0.500000
0.629442 0.536415 -0.267119 0.300000 0.600000 0.000000
0.556693 0.153103 -0.313231 0.300000 0.000000 0.600000
-0.139170 -0.526009 0.043738 1.000000 0.000000 0.000000
0.385269 -0.610945 0.320192 0.500000 0.000000 0.500000
0.003886 0.250368 0.236290 0.000000 0.000000 1.000000
0.378905 0.714100 0.143804 0.300000 0.000000 0.600000
0.034052 0.700279 0.320192 0.500000 0.000000 0.500000
-0.214290 -0.701788 -0.297693 0.600000 0.300000 0.000000
-0.612565 -0.300545 -0.141906 0.600000 0.000000 0.300000
-0.431183 -0.512542 0.028050 1.000000 0.000000 0.000000
0.306247 0.312542 0.320192 0.500000 0.000000 0.500000
0.487203 0.572427 0.287072 0.500000 0.000000 0.500000
0.629442 0.162598 0.279318 0.300000 0.600000 0.000000
0.596322 -0.036918 -0.163845 0.300000 0.600000 0.000000
-0.436071 -0.523154 0.224549 1.000000 0.000000 0.000000
0.025020 -0.550449 0.243990 1.000000 0.000000 0.000000
0.502796 0.187162 -0.022414 0.500000 0.500000 0.000000
0.126184 0.747221 0.040209 0.300000 0.000000 0.600000
-0.441663 0.373154 0.287072 0.500000 0.000000 0.500000
-0.257526 -0.240367 0.287072 0.500000 0.000000 0.500000
0.027472 0.221602 -0.313231 0.300000 0.000000 0.600000
-0.206267 -0.596627 0.255729 0.000000 1.000000 0.000000
-0.203945 0.596259 0.320192 0.500000 0.000000 0.500000
-0.422654 0.040973 0.287072 0.500000 0.000000 0.500000
-0.612565 0.506645 -0.190024 0.600000 0.000000 0.300000
-0.161014 0.747221 0.061945 0.300000 0.000000 0.600000
0.477538 -0.616699 0.071537 0.000000 1.000000 0.000000
0.224948 -0.430077 -0.313231 0.300000 0.000000 0.600000
0.283824 0.189232 -0.195654 0.500000 0.500000 0.000000
0.238759 -0.690246 0.320192 0.500000 0.000000 0.500000
0.368394 -0.676537 -0.313231 0.300000 0.000000 0.600000
0.214442 0.473395 -0.307021 0.300000 0.000000 0.600000
-0.612565 -0.087500 0.044583 0.600000 0.000000 0.300000
-0.236304 0.744581 -0.307021 0.300000 0.000000 0.600000
0.103805 -0.478713 -0.103799 1.000000 0.000000 0.000000
-0.453411 0.714100 0.171435 0.300000 0.000000 0.600000
0.629442 -0.542086 -0.001446 0.300000 0.600000 0.000000
-0.506301 -0.460411 0.369152 0.000000 0.500000 0.500000
-0.382213 -0.402853 -0.151056 1.000000 0.000000 0.000000
-0.495804 -0.595999 -0.240756 0.000000 1.000000 0.000000
0.439339 -0.400889 -0.152213 1.000000 0.000000 0.000000
-0.376874 -0.701788 0.030089 0.600000 0.300000 0.000000
0.066740 0.747221 -0.228278 0.300000 0.000000 0.600000
-0.216081 0.247775 0.006159 0.000000 0.000000 1.000000
0.408843 -0.370189 0.320192 0.500000 0.000000 0.500000
0.471682 0.384930 0.320192 0.500000 0.000000 0.500000
-0.612565 -0.373197 0.001759 0.600000 0.000000 0.300000
-0.329201 0.189232 -0.148020 0.500000 0.500000 0.000000
-0.041195 -0.041033 0.320192 0.500000 0.000000 0.500000
-0.571868 0.242371 -0.313231 0.300000 0.000000 0.600000
-0.456077 0.052250 -0.307021 0.300000 0.000000 0.600000
0.076473 -0.677332 0.320192 0.500000 0.000000 0.500000
0.079053 0.091885 0.287072 0.500000 0.000000 0.500000
0.485401 0.257564 0.116159 0.000000 0.000000 1.000000
0.596322 0.462385 0.036465 0.300000 0.600000 0.000000
0.115094 -0.546941 -0.313231 0.300000 0.000000 0.600000
-0.367323 0.189232 0.166563 0.500000 0.500000 0.000000
0.629442 0.311024 0.233663 0.300000 0.600000 0.000000
-0.264848 0.092225 0.320192 0.500000 0.000000 0.500000
0.247052 -0.528325 0.077233 1.000000 0.000000 0.000000
-0.252929 0.330318 -0.307021 0.300000 0.000000 0.600000
0.336548 0.338470 -0.313231 0.300000 0.000000 0.600000
-0.612565 0.414923 0.129206 0.600000 0.000000 0.300000
-0.492044 0.747221 -0.105704 0.300000 0.000000 0.600000
0.478774 0.081221 0.320192 0.500000 0.000000 0.500000
-0.039932 -0.616699 -0.076038 0.000000 1.000000 0.000000
0.193905 0.255440 -0.032434 0.000000 0.000000 1.000000
0.522510 -0.545237 0.320192 0.500000 0.000000 0.500000
-0.217193 0.096166 -0.313231 0.300000 0.000000 0.600000
-0.612565 0.348085 -0.180025 0.600000 0.000000 0.300000
-0.538975 0.253428 -0.021605 0.000000 0.000000 1.000000
0.629442 0.035709 -0.037030 0.300000 0.600000 0.000000
-0.463998 -0.227642 -0.307021 0.300000 0.000000 0.600000
-0.579445 0.011858 -0.173471 0.600000 0.000000 0.300000
-0.366719 -0.701788 0.182848 0.600000 0.300000 0.000000
-0.456911 -0.240776 0.287072 0.500000 0.000000 0.500000
0.312308 -0.258474 -0.313231 0.300000 0.000000 0.600000
0.006551 -0.516282 -0.217850 1.000000 0.000000 0.000000
0.503592 -0.701788 0.188463 0.600000 0.300000 0.000000
-0.509658 -0.697648 0.289285 0.500000 0.000000 0.500000
-0.297538 0.405720 0.287072 0.500000 0.000000 0.500000
-0.297136 -0.668668 -0.157868 0.600000 0.300000 0.000000
-0.313128 0.747221 0.148872 0.300000 0.000000 0.600000
0.243867 -0.527999 -0.073679 1.000000 0.000000 0.000000
-0.053024 0.253449 -0.125236 0.000000 0.000000 1.000000
0.157440 -0.205360 0.320192 0.500000 0.000000 0.500000
0.139415 -0.701788 -0.290008 0.600000 0.300000 0.000000
-0.436590 -0.401986 0.146080 1.000000 0.000000 0.000000
-0.612565 -0.452243 0.257643 0.600000 0.000000 0.300000
0.494394 0.622416 -0.313231 0.300000 0.000000 0.600000
-0.289829 -0.475886 0.287072 0.500000 0.000000 0.500000
0.625025 0.612813 0.296495 0.500000 0.000000 0.500000
-0.091110 -0.381562 -0.307021 0.300000 0.000000 0.600000
0.469390 0.005239 -0.313231 0.300000 0.000000 0.600000
0.056605 0.372838 -0.313231 0.300000 0.000000 0.600000
-0.239242 -0.400562 -0.154694 1.000000 0.000000 0.000000
0.169243 -0.298462 -0.313231 0.300000 0.000000 0.600000
0.236930 -0.404174 0.287072 0.500000 0.000000 0.500000
-0.267585 -0.182134 -0.313231 0.300000 0.000000 0.600000
-0.612565 0.536740 -0.002166 0.600000 0.000000 0.300000
-0.126481 0.487461 -0.307021 0.300000 0.000000 0.600000
0.049704 -0.060229 -0.307021 0.300000 0.000000 0.600000
0.473299 -0.091657 0.320192 0.500000 0.000000 0.500000
-0.111902 0.198123 -0.313231 0.300000 0.000000 0.600000
-0.612565 -0.682225 -0.193331 0.600000 0.000000 0.300000
0.629442 -0.145923 -0.254107 0.300000 0.600000 0.000000
-0.019069 -0.701788 0.191886 0.600000 0.300000 0.000000
-0.012296 0.363761 0.320192 0.500000 0.000000 0.500000
-0.414926 -0.701788 -0.300624 0.600000 0.300000 0.000000
-0.292750 -0.449846 -0.313231 0.300000 0.000000 0.600000
-0.378880 0.640281 -0.313231 0.300000 0.000000 0.600000
0.213717 0.165843 -0.313231 0.300000 0.000000 0.600000
0.340143 0.111361 0.287072 0.500000 0.000000 0.500000
-0.095614 0.747221 -0.172138 0.300000 0.000000 0.600000
0.484876 -0.269696 -0.313231 0.300000 0.000000 0.600000
0.265491 0.747221 -0.246867 0.300000 0.000000 0.600000
0.596322 -0.030267 0.183078 0.300000 0.600000 0.000000
0.539889 -0.397084 -0.313231 0.300000 0.000000 0.600000
-0.579445 -0.127902 0.180107 0.600000 0.000000 0.300000
-0.106730 -0.616699 -0.224667 0.000000 1.000000 0.000000
-0.612565 0.187961 -0.194150 0.600000 0.000000 0.300000
0.629442 0.745643 -0.022441 0.300000 0.600000 0.000000
0.071623 0.189232 -0.006091 0.500000 0.500000 0.000000
0.265309 0.747221 0.050899 0.300000 0.000000 0.600000
0.629442 -0.554532 -0.208055 0.300000 0.600000 0.000000
0.596322 -0.305624 0.243451 0.300000 0.600000 0.000000
-0.579445 0.044555 0.034949 0.600000 0.000000 0.300000
-0.231739 -0.616699 0.001132 0.000000 1.000000 0.000000
0.325318 -0.534430 -0.307021 0.300000 0.000000 0.600000
0.306219 -0.049490 -0.313231 0.300000 0.000000 0.600000
-0.606206 0.747221 -0.186020 0.600000 0.000000 0.300000
-0.126033 -0.616699 0.143450 0.000000 1.000000 0.000000
0.245624 -0.616699 0.204142 0.000000 1.000000 0.000000
0.237036 -0.701788 -0.128930 0.600000 0.300000 0.000000
-0.579445 -0.389484 -0.240191 0.600000 0.000000 0.300000
0.487464 -0.481962 0.105753 1.000000 0.000000 0.000000
-0.612565 -0.355819 0.163909 0.600000 0.000000 0.300000
-0.486419 0.247388 0.243015 0.000000 0.000000 1.000000
0.466717 0.371256 -0.307021 0.300000 0.000000 0.600000
0.162220 0.251385 0.236374 0.000000 0.000000 1.000000
0.596322 -0.246752 0.010650 0.300000 0.600000 0.000000
-0.549296 -0.599455 0.194749 0.600000 0.000000 0.300000
-0.054307 -0.335447 0.287072 0.500000 0.000000 0.500000
-0.147289 0.464512 0.287072 0.500000 0.000000 0.500000
0.117652 -0.668668 0.040145 0.600000 0.300000 0.000000
0.596322 0.279476 -0.177015 0.300000 0.600000 0.000000
0.497734 0.714100 0.205687 0.300000 0.000000 0.600000
-0.086296 0.656111 0.287072 0.500000 0.000000 0.500000
-0.612565 -0.540459 -0.190623 0.600000 0.000000 0.300000
-0.557852 0.005864 0.320192 0.500000 0.000000 0.500000
0.096366 -0.616699 -0.198221 0.000000 1.000000 0.000000
-0.003815 0.259430 0.104638 0.000000 0.000000 1.000000
-0.192516 0.197518 0.287072 0.500000 0.000000 0.500000
-0.099982 0.616355 -0.307021 0.300000 0.000000 0.600000
0.629442 0.742465 0.206248 0.300000 0.600000 0.000000
-0.326049 0.021109 -0.313231 0.300000 0.000000 0.600000
-0.458931 0.310419 -0.283188 0.000000 0.000000 1.000000
0.502275 -0.701788 -0.026802 0.600000 0.300000 0.000000
-0.612565 0.627386 -0.248944 0.600000 0.000000 0.300000
0.205348 0.029921 0.287072 0.500000 0.000000 0.500000
0.339440 -0.480856 0.320192 0.500000 0.000000 0.500000
0.347505 -0.616699 0.068205 0.000000 1.000000 0.000000
0.629442 0.660742 -0.213818 0.300000 0.600000 0.000000
0.625025 -0.181142 0.315341 0.500000 0.000000 0.500000
-0.245539 -0.518817 -0.214264 1.000000 0.000000 0.000000
0.629442 -0.674156 0.189658 0.300000 0.600000 0.000000
0.629442 0.208595 -0.013652 0.300000 0.600000 0.000000
0.497970 0.714100 -0.035626 0.300000 0.000000 0.600000
0.226336 0.718351 0.320192 0.500000 0.000000 0.500000
-0.502562 -0.618770 0.002942 0.000000 1.000000 0.000000
0.265728 -0.138695 0.287072 0.500000 0.000000 0.500000
-0.579445 -0.179300 -0.229441 0.600000 0.000000 0.300000
0.629442 0.198825 0.155772 0.300000 0.600000 0.000000
-0.579445 -0.516374 -0.008839 0.600000 0.000000 0.300000
0.324208 0.592099 -0.307021 0.300000 0.000000 0.600000
-0.093848 -0.514098 0.211581 1.000000 0.000000 0.000000
0.285260 0.255331 0.061745 0.000000 0.000000 1.000000
0.034442 0.659494 -0.313231 0.300000 0.000000 0.600000
0.031162 -0.167237 0.320192 0.500000 0.000000 0.500000
0.596322 0.422575 0.155338 0.300000 0.600000 0.000000
-0.014245 -0.701788 -0.173840 0.600000 0.300000 0.000000
0.384973 -0.191151 0.287072 0.500000 0.000000 0.500000
0.274726 0.591096 0.320192 0.500000 0.000000 0.500000
-0.485054 0.681810 0.287072 0.500000 0.000000 0.500000
-0.608703 0.250582 0.319464 0.500000 0.000000 0.500000
-0.460358 0.733600 -0.313231 0.300000 0.000000 0.600000
-0.250012 -0.363474 0.320192 0.500000 0.000000 0.500000
0.596322 0.068997 -0.231544 0.300000 0.600000 0.000000
0.523203 -0.531388 -0.063810 1.000000 0.000000 0.000000
-0.079932 0.187162 0.171632 0.500000 0.500000 0.000000
0.430782 0.180811 -0.313231 0.300000 0.000000 0.600000
0.629442 -0.354728 -0.036036 0.300000 0.600000 0.000000
0.533174 -0.571694 -0.313231 0.300000 0.000000 0.600000
-0.267700 -0.701788 0.254244 0.600000 0.300000 0.000000
-0.611602 -0.701788 0.215100 0.600000 0.000000 0.300000
0.462242 -0.668668 -0.220055 0.600000 0.300000 0.000000
0.596322 -0.347794 -0.217752 0.300000 0.600000 0.000000
-0.245940 0.451424 -0.307021 0.300000 0.000000 0.600000
0.525077 0.495785 -0.313231 0.300000 0.000000 0.600000
-0.475857 -0.477807 -0.313231 0.300000 0.000000 0.600000
-0.077076 -0.564315 0.320192 0.500000 0.000000 0.500000
-0.579445 -0.226701 -0.052381 0.600000 0.000000 0.300000
0.079662 0.480836 0.320192 0.500000 0.000000 0.500000
-0.368409 -0.516456 -0.210832 1.000000 0.000000 0.000000
0.335978 -0.616699 -0.060523 0.000000 1.000000 0.000000
-0.467739 0.171744 -0.307021 0.300000 0.000000 0.600000
-0.579445 0.120213 0.201977 0.600000 0.000000 0.300000
-0.579445 -0.251007 0.211975 0.600000 0.000000 0.300000
-0.422696 -0.616699 0.101138 0.000000 1.000000 0.000000
0.212218 0.455601 0.287072 0.500000 0.000000 0.500000
-0.612565 -0.629101 0.088066 0.600000 0.000000 0.300000
0.518153 0.747221 -0.268299 0.300000 0.000000 0.600000
-0.293110 0.258771 0.249014 0.000000 0.000000 1.000000
-0.307949 0.645302 0.287072 0.500000 0.000000 0.500000
0.331096 0.714100 -0.150435 0.300000 0.000000 0.600000
0.046455 -0.269586 -0.313231 0.300000 0.000000 0.600000
-0.148126 -0.202338 -0.313231 0.300000 0.000000 0.600000
0.596322 -0.424540 0.204708 0.300000 0.600000 0.000000
0.424554 0.189232 -0.111422 0.500000 0.500000 0.000000
-0.476321 0.187162 0.071644 0.500000 0.500000 0.000000
-0.475402 -0.580676 0.320192 0.500000 0.000000 0.500000
0.147405 -0.496824 0.212012 1.000000 0.000000 0.000000
0.049611 -0.463697 0.320192 0.500000 0.000000 0.500000
-0.346949 -0.269184 -0.307021 0.300000 0.000000 0.600000
-0.430078 -0.513446 -0.089899 1.000000 0.000000 0.000000
0.629442 0.512488 -0.147038 0.300000 0.600000 0.000000
0.536907 -0.470212 -0.195329 1.000000 0.000000 0.000000
0.524426 0.266170 -0.307021 0.300000 0.000000 0.600000
-0.144371 -0.701788 0.222318 0.600000 0.300000 0.000000
-0.612565 0.663525 0.204193 0.600000 0.000000 0.300000
-0.505419 -0.376689 0.287072 0.500000 0.000000 0.500000
-0.360050 -0.618770 -0.050890 0.000000 1.000000 0.000000
-0.448325 0.187162 -0.080641 0.500000 0.500000 0.000000
-0.066633 -0.067064 -0.307021 0.300000 0.000000 0.600000
0.061391 -0.618770 0.144619 0.000000 1.000000 0.000000
-0.612565 0.300057 0.066242 0.600000 0.000000 0.300000
0.164145 -0.618770 -0.083420 0.000000 1.000000 0.000000
0.465526 -0.603815 0.237244 0.000000 1.000000 0.000000
0.240197 -0.701788 0.120010 0.600000 0.300000 0.000000
0.629442 -0.464217 0.083148 0.300000 0.600000 0.000000
0.001353 -0.518357 -0.033775 1.000000 0.000000 0.000000
-0.143656 -0.701788 -0.008012 0.600000 0.300000 0.000000
-0.289780 -0.523745 0.039685 1.000000 0.000000 0.000000
-0.263291 0.747221 0.010773 0.300000 0.000000 0.600000
0.629442 -0.691583 -0.215038 0.300000 0.600000 0.000000
0.629442 -0.630937 -0.330373 0.300000 0.600000 0.000000
0.339171 -0.616699 -0.177460 0.000000 1.000000 0.000000
0.596322 0.430977 -0.231359 0.300000 0.600000 0.000000
0.344729 -0.453719 -0.116951 1.000000 0.000000 0.000000
0.629442 -0.540461 0.281352 0.300000 0.600000 0.000000
0.087402 0.234352 0.320192 0.500000 0.000000 0.500000
-0.612565 0.167274 0.039158 0.600000 0.000000 0.300000
-0.356519 0.714100 -0.105424 0.300000 0.000000 0.600000
-0.223706 0.216157 -0.313231 0.300000 0.000000 0.600000
-0.190928 -0.458520 0.194023 1.000000 0.000000 0.000000
0.003644 -0.400568 -0.144853 1.000000 0.000000 0.000000
-0.579445 0.637386 0.037347 0.600000 0.000000 0.300000
0.596322 -0.035577 0.070125 0.300000 0.600000 0.000000
0.596322 0.645108 0.035538 0.300000 0.600000 0.000000
-0.294442 0.259400 0.086666 0.000000 0.000000 1.000000
0.531935 -0.101129 -0.307021 0.300000 0.000000 0.600000
-0.516744 -0.618770 -0.126575 0.000000 1.000000 0.000000
0.249019 -0.692383 -0.313231 0.300000 0.000000 0.600000
0.415482 0.189232 0.060720 0.500000 0.500000 0.000000
-0.247543 0.253497 -0.101571 0.000000 0.000000 1.000000
-0.579445 0.746840 -0.033379 0.300000 0.000000 0.600000
-0.612565 -0.015277 -0.069866 0.600000 0.000000 0.300000
0.512182 -0.427435 0.320192 0.500000 0.000000 0.500000
-0.283309 -0.701788 -0.051874 0.600000 0.300000 0.000000
-0.065794 0.225737 0.320192 0.500000 0.000000 0.500000
0.060474 0.103851 -0.307021 0.300000 0.000000 0.600000
0.096419 0.257965 -0.233331 0.000000 0.000000 1.000000
0.562975 0.287583 0.320192 0.500000 0.000000 0.500000
-0.488075 0.714100 0.036448 0.300000 0.000000 0.600000
0.380803 -0.701788 -0.004192 0.600000 0.300000 0.000000
0.596322 -0.144054 -0.111927 0.300000 0.600000 0.000000
-0.499887 0.445535 -0.313231 0.300000 0.000000 0.600000
0.538673 0.187162 -0.198304 0.500000 0.500000 0.000000
-0.174689 -0.527952 -0.061146 1.000000 0.000000 0.000000
0.088533 -0.167152 -0.313231 0.300000 0.000000 0.600000
-0.579445 0.478714 0.213437 0.600000 0.000000 0.300000
-0.043852 0.187162 -0.213390 0.500000 0.500000 0.000000
-0.612565 0.296968 0.206287 0.600000 0.000000 0.300000
0.243839 -0.494484 -0.208065 1.000000 0.000000 0.000000
-0.304740 -0.017337 0.287072 0.500000 0.000000 0.500000
-0.267479 0.714100 -0.197325 0.300000 0.000000 0.600000
-0.238104 -0.592201 -0.307021 0.300000 0.000000 0.600000
-0.297255 0.258549 -0.228954 0.000000 0.000000 1.000000
-0.298933 -0.616699 0.165808 0.000000 1.000000 0.000000
0.188570 0.254431 -0.172457 0.000000 0.000000 1.000000
0.629442 0.234736 -0.323696 0.300000 0.600000 0.000000
-0.208652 -0.147341 0.320192 0.500000 0.000000 0.500000
0.067716 0.747221 0.214387 0.300000 0.000000 0.600000
-0.048478 0.714100 0.037815 0.300000 0.000000 0.600000
0.138043 -0.613348 0.237244 0.000000 1.000000 0.000000
-0.050094 -0.559185 -0.307021 0.300000 0.000000 0.600000
-0.396963 0.532776 -0.307021 0.300000 0.000000 0.600000
0.454218 -0.697648 0.291661 0.500000 0.000000 0.500000
0.107203 0.491207 -0.313231 0.300000 0.000000 0.600000
-0.474205 -0.055226 0.287072 0.500000 0.000000 0.500000
0.343908 -0.485702 0.101735 1.000000 0.000000 0.000000
0.094873 0.747221 -0.071174 0.300000 0.000000 0.600000
-0.402803 -0.484364 0.320192 0.500000 0.000000 0.500000
0.339669 0.257398 -0.132623 0.000000 0.000000 1.000000
0.466724 -0.618770 -0.092438 0.000000 1.000000 0.000000
0.145717 0.740807 -0.313231 0.300000 0.000000 0.600000
-0.524543 -0.701788 -0.252425 0.600000 0.300000 0.000000
-0.538045 0.616247 -0.171907 0.800000 0.200000 0.500000
-0.389602 -0.618770 -0.181734 0.000000 1.000000 0.000000
0.385585 0.259449 0.224010 0.000000 0.000000 1.000000
0.327840 0.231366 -0.313231 0.300000 0.000000 0.600000
0.304306 0.714100 0.226979 0.300000 0.000000 0.600000
-0.411177 0.189232 -0.217326 0.500000 0.500000 0.000000
-0.108972 -0.686738 -0.307021 0.600000 0.300000 0.000000
-0.490482 0.482176 0.287072 0.500000 0.000000 0.500000
0.239664 0.259465 0.158193 0.000000 0.000000 1.000000
-0.346738 0.317271 0.320192 0.500000 0.000000 0.500000
0.149601 -0.508779 -0.006870 1.000000 0.000000 0.000000
0.018287 -0.618770 0.012983 0.000000 1.000000 0.000000
-0.105704 -0.510837 -0.214656 1.000000 0.000000 0.000000
-0.203134 -0.616699 -0.172757 0.000000 1.000000 0.000000
0.139049 -0.510868 -0.214041 1.000000 0.000000 0.000000
0.596322 0.076341 0.226927 0.300000 0.600000 0.000000
-0.114298 0.714100 -0.048741 0.300000 0.000000 0.600000
0.442307 -0.475798 -0.313231 0.300000 0.000000 0.600000
0.545433 0.189232 0.219696 0.500000 0.500000 0.000000
0.596322 -0.169279 0.082989 0.300000 0.600000 0.000000
-0.276176 0.743080 0.316455 0.500000 0.000000 0.500000
-0.578265 -0.600164 -0.307021 0.300000 0.000000 0.600000
0.474439 0.672118 0.320192 0.500000 0.000000 0.500000
0.167984 -0.616699 0.117773 0.000000 1.000000 0.000000
0.298083 -0.515477 0.221033 1.000000 0.000000 0.000000
0.281676 -0.568905 0.320192 0.500000 0.000000 0.500000
-0.310569 -0.668668 -0.271148 0.600000 0.300000 0.000000
0.298914 -0.407457 0.167659 1.000000 0.000000 0.000000
0.174458 -0.310692 0.287072 0.500000 0.000000 0.500000
0.055892 -0.451006 0.189127 1.000000 0.000000 0.000000
0.282271 0.207862 0.249914 0.500000 0.500000 0.000000
0.452354 0.747221 -0.124923 0.300000 0.000000 0.600000
-0.043788 -0.517334 0.086136 1.000000 0.000000 0.000000
0.367358 0.222920 0.320192 0.500000 0.000000 0.500000
-0.032370 0.747221 0.244362 0.300000 0.000000 0.600000
0.051866 0.592300 0.320192 0.500000 0.000000 0.500000
-0.612565 -0.080487 -0.225196 0.600000 0.000000 0.300000
-0.612565 0.509836 -0.294209 0.600000 0.000000 0.300000
-0.148964 0.259442 0.100818 0.000000 0.000000 1.000000
-0.074669 -0.276040 -0.313231 0.300000 0.000000 0.600000
0.596322 0.301270 -0.047064 0.300000 0.600000 0.000000
-0.172100 0.059558 0.287072 0.500000 0.000000 0.500000
-0.582614 -0.701788 0.020353 0.600000 0.000000 0.300000
-0.152240 -0.291405 0.320192 0.500000 0.000000 0.500000
0.440504 0.747221 0.043836 0.300000 0.000000 0.600000
-0.066450 -0.616699 0.228035 0.000000 1.000000 0.000000
-0.504339 0.714100 -0.202721 0.300000 0.000000 0.600000
0.336117 -0.699295 0.287072 0.600000 0.300000 0.000000
0.575622 -0.623830 0.101950 0.300000 0.600000 0.000000
-0.440662 0.259455 0.135412 0.000000 0.000000 1.000000
0.202203 -0.050278 -0.307021 0.300000 0.000000 0.600000
-0.456030 0.138001 0.287072 0.500000 0.000000 0.500000
0.425817 -0.701788 0.095687 0.600000 0.300000 0.000000
-0.111340 -0.107458 0.287072 0.500000 0.000000 0.500000
0.629442 -0.556103 -0.106074 0.300000 0.600000 0.000000
-0.151167 0.253970 0.212876 0.000000 0.000000 1.000000
-0.352127 -0.221775 0.320192 0.500000 0.000000 0.500000
0.223605 -0.534482 -0.313231 0.300000 0.000000 0.600000
0.596322 0.525521 0.228916 0.300000 0.600000 0.000000
-0.612565 -0.392637 -0.098729 0.600000 0.000000 0.300000
0.409154 0.747221 0.257829 0.300000 0.000000 0.600000
0.129804 0.709031 0.287072 0.500000 0.000000 0.500000
0.554922 0.639231 -0.148138 0.000000 0.000000 1.000000
-0.265863 0.496376 0.320192 0.500000 0.000000 0.500000
0.434009 0.485920 0.287072 0.500000 0.000000 0.500000
0.629442 0.167691 -0.244141 0.300000 0.600000 0.000000
0.550940 -0.617167 -0.221266 0.000000 1.000000 0.000000
-0.579445 -0.009529 -0.290285 0.600000 0.000000 0.300000
0.303807 -0.151903 -0.313231 0.300000 0.000000 0.600000
0.629442 0.691848 0.119155 0.300000 0.600000 0.000000
0.047585 0.258269 -0.095291 0.000000 0.000000 1.000000
0.146778 -0.416858 -0.170398 1.000000 0.000000 0.000000
0.552024 -0.606592 -0.003799 0.000000 1.000000 0.000000
-0.551088 -0.232705 0.320192 0.500000 0.000000 0.500000
-0.327734 -0.616699 0.069377 0.000000 1.000000 0.000000
-0.579445 0.511026 -0.093079 0.600000 0.000000 0.300000
-0.536042 0.341460 0.320192 0.500000 0.000000 0.500000
-0.579445 0.319195 -0.085176 0.600000 0.000000 0.300000
-0.146768 0.273737 -0.257847 0.000000 0.000000 1.000000
0.223164 0.189232 -0.105057 0.500000 0.500000 0.000000
-0.176028 -0.669203 0.320192 0.500000 0.000000 0.500000
0.558589 0.207862 0.057762 0.500000 0.500000 0.000000
0.212218 0.714100 -0.026800 0.300000 0.000000 0.600000
-0.102988 -0.618770 0.038299 0.000000 1.000000 0.000000
-0.492410 -0.061519 -0.307021 0.300000 0.000000 0.600000
-0.556135 0.747221 0.200086 0.300000 0.000000 0.600000
0.488039 -0.504004 0.215663 1.000000 0.000000 0.000000
0.405834 -0.616699 0.148500 0.000000 1.000000 0.000000
0.526511 0.472146 0.320192 0.500000 0.000000 0.500000
-0.464919 -0.668668 0.188092 0.600000 0.300000 0.000000
-0.181660 -0.421881 -0.307021 0.300000 0.000000 0.600000
-0.558745 0.208042 -0.107463 0.000000 0.500000 0.500000
-0.153432 0.189232 -0.043458 0.500000 0.500000 0.000000
0.090907 -0.573713 0.320192 0.500000 0.000000 0.500000
-0.522719 -0.701788 -0.058534 0.600000 0.300000 0.000000
-0.110964 0.747221 0.165308 0.300000 0.000000 0.600000
0.218060 0.267778 0.320192 0.500000 0.000000 0.500000
0.081190 0.189232 0.232495 0.500000 0.500000 0.000000
-0.288554 -0.568639 0.320192 0.500000 0.000000 0.500000
-0.407971 0.612896 0.287072 0.500000 0.000000 0.500000
-0.360867 0.111817 0.320192 0.500000 0.000000 0.500000
0.019834 -0.490817 -0.313231 0.300000 0.000000 0.600000
-0.041117 -0.443301 0.287072 0.500000 0.000000 0.500000
0.103216 0.589003 -0.313231 0.300000 0.000000 0.600000
0.438160 -0.401966 0.154829 1.000000 0.000000 0.000000
-0.140644 0.022271 -0.307021 0.300000 0.000000 0.600000
-0.364410 -0.596512 0.235396 0.000000 1.000000 0.000000
-0.612565 -0.062120 0.256506 0.600000 0.000000 0.300000
0.575555 0.378547 0.287072 0.500000 0.000000 0.500000
0.462925 -0.639330 -0.313231 0.300000 0.000000 0.600000
-0.115377 0.743080 0.320081 0.500000 0.000000 0.500000
0.077585 0.714100 0.123269 0.300000 0.000000 0.600000
0.300171 -0.354961 -0.307021 0.300000 0.000000 0.600000
-0.282951 0.187162 -0.031499 0.500000 0.500000 0.000000
-0.385622 -0.476046 0.108829 1.000000 0.000000 0.000000
-0.010604 0.305645 -0.282539 0.000000 0.000000 1.000000
-0.000498 -0.616699 -0.218644 0.000000 1.000000 0.000000
0.143633 0.259178 0.050498 0.000000 0.000000 1.000000
-0.224075 0.714100 0.127739 0.300000 0.000000 0.600000
0.629442 -0.434167 -0.246733 0.300000 0.600000 0.000000
-0.356133 0.734391 -0.313231 0.300000 0.000000 0.600000
0.629442 0.610358 -0.329511 0.300000 0.600000 0.000000
0.244052 0.065877 -0.313231 0.300000 0.000000 0.600000
0.363613 0.382650 0.287072 0.500000 0.000000 0.500000
-0.533635 0.662639 -0.307021 0.300000 0.000000 0.600000
-0.579445 0.211020 0.236551 0.600000 0.000000 0.300000
-0.399375 0.747221 0.093656 0.300000 0.000000 0.600000
0.629442 -0.271497 0.159742 0.300000 0.600000 0.000000
-0.481751 -0.467578 -0.196943 1.000000 0.000000 0.000000
-0.596223 0.480326 0.320192 0.500000 0.000000 0.500000
-0.366066 0.317467 -0.307021 0.300000 0.000000 0.600000
0.458321 0.189232 0.179295 0.500000 0.500000 0.000000
-0.194462 0.658429 -0.313231 0.300000 0.000000 0.600000
0.629442 -0.664305 -0.034581 0.300000 0.600000 0.000000
-0.135061 -0.616699 -0.064666 0.000000 1.000000 0.000000
0.148611 0.398634 -0.307021 0.300000 0.000000 0.600000
0.535460 -0.514809 0.029825 1.000000 0.000000 0.000000
-0.579445 0.494757 0.080751 0.600000 0.000000 0.300000
0.012137 -0.701788 -0.034008 0.600000 0.300000 0.000000
0.629442 -0.096167 0.271975 0.300000 0.600000 0.000000
0.295172 0.682734 -0.313231 0.300000 0.000000 0.600000
-0.533746 -0.485191 0.205730 1.000000 0.000000 0.000000
-0.022590 0.714100 -0.228819 0.300000 0.000000 0.600000
-0.024627 0.422579 -0.313231 0.300000 0.000000 0.600000
-0.533640 -0.407290 0.138445 1.000000 0.000000 0.000000
0.432521 0.253638 -0.007300 0.000000 0.000000 1.000000
0.629442 0.377372 -0.000454 0.300000 0.600000 0.000000
-0.521115 -0.355042 -0.307021 0.300000 0.000000 0.600000
-0.579445 0.093518 -0.222273 0.600000 0.000000 0.300000
0.559658 -0.192097 -0.307021 0.300000 0.000000 0.600000
0.430932 -0.506439 0.320192 0.500000 0.000000 0.500000
-0.612565 0.092982 0.109508 0.600000 0.000000 0.300000
-0.294049 -0.072527 -0.307021 0.300000 0.000000 0.600000
0.221508 0.187162 0.027185 0.500000 0.500000 0.000000
0.343672 -0.511719 -0.216955 1.000000 0.000000 0.000000
0.304779 -0.701788 -0.237343 0.600000 0.300000 0.000000
0.619298 0.074203 0.320192 0.500000 0.000000 0.500000
-0.491167 -0.152596 0.287072 0.500000 0.000000 0.500000
0.527123 -0.701788 0.079544 0.600000 0.300000 0.000000
0.619739 0.470341 -0.333931 0.300000 0.600000 0.000000
0.204204 -0.058489 0.320192 0.500000 0.000000 0.500000
0.298273 -0.507207 0.000810 1.000000 0.000000 0.000000
-0.416675 -0.701788 0.273772 0.600000 0.300000 0.000000
-0.608703 0.637797 0.313253 0.500000 0.000000 0.500000
-0.348989 0.112326 -0.307021 0.300000 0.000000 0.600000
-0.148645 0.747221 -0.250023 0.300000 0.000000 0.600000
0.206018 0.714100 0.116171 0.300000 0.000000 0.600000
0.559944 -0.598069 0.251850 0.000000 1.000000 0.000000
-0.443041 0.250941 0.008321 0.000000 0.000000 1.000000
0.037796 0.714100 -0.145095 0.300000 0.000000 0.600000
0.164283 -0.701788 -0.039234 0.600000 0.300000 0.000000
0.549000 0.209932 -0.100944 0.500000 0.500000 0.000000
0.419957 -0.276968 0.320192 0.500000 0.000000 0.500000
-0.037881 -0.618770 0.111320 0.000000 1.000000 0.000000
0.093180 0.259403 0.168334 0.000000 0.000000 1.000000
0.443782 -0.488117 -0.099645 1.000000 0.000000 0.000000
0.369540 0.598485 0.320192 0.500000 0.000000 0.500000
0.174166 -0.668668 -0.196269 0.600000 0.300000 0.000000
-0.579445 0.414126 -0.109009 0.600000 0.000000 0.300000
-0.520579 0.189232 -0.222999 0.500000 0.500000 0.000000
0.629442 -0.341796 -0.130512 0.300000 0.600000 0.000000
-0.343458 0.714100 0.234656 0.300000 0.000000 0.600000
0.596322 -0.439934 -0.016752 0.300000 0.600000 0.000000
-0.019198 0.043471 0.287072 0.500000 0.000000 0.500000
0.596322 0.121899 -0.023148 0.300000 0.600000 0.000000
0.133169 -0.438711 0.287072 0.500000 0.000000 0.500000
-0.341169 0.258206 -0.047679 0.000000 0.000000 1.000000
0.006344 0.139723 0.320192 0.500000 0.000000 0.500000
-0.579445 0.429385 -0.230031 0.600000 0.000000 0.300000
0.629442 0.492216 -0.047748 0.300000 0.600000 0.000000
-0.612565 -0.183653 0.028445 0.600000 0.000000 0.300000
-0.394369 0.258623 0.235970 0.000000 0.000000 1.000000
-0.279313 0.200123 0.320192 0.500000 0.000000 0.500000
0.402582 0.642772 -0.313231 0.300000 0.000000 0.600000
0.420914 0.282579 -0.307021 0.300000 0.000000 0.600000
0.380476 0.187162 -0.198990 0.500000 0.500000 0.000000
-0.000374 -0.247691 0.287072 0.500000 0.000000 0.500000
-0.008791 0.187162 -0.077208 0.500000 0.500000 0.000000
0.549150 -0.326420 0.320192 0.500000 0.000000 0.500000
-0.143323 -0.701788 0.104463 0.600000 0.300000 0.000000
-0.579445 -0.534234 -0.099632 0.600000 0.000000 0.300000
-0.444387 -0.564630 -0.313231 0.300000 0.000000 0.600000
0.629442 0.085598 -0.316100 0.300000 0.600000 0.000000
0.437819 -0.013140 0.287072 0.500000 0.000000 0.500000
-0.438974 0.278011 0.320192 0.500000 0.000000 0.500000
0.221788 0.370115 0.320192 0.500000 0.000000 0.500000
-0.056724 0.445516 0.320192 0.500000 0.000000 0.500000
-0.579445 0.338158 -0.265775 0.600000 0.000000 0.300000
0.043593 -0.701788 0.109189 0.600000 0.300000 0.000000
0.270972 0.747221 -0.089339 0.300000 0.000000 0.600000
0.051882 -0.616699 -0.077711 0.000000 1.000000 0.000000
0.305541 0.463715 -0.313231 0.300000 0.000000 0.600000
-0.612565 0.564453 0.253835 0.600000 0.000000 0.300000
0.596322 0.555146 0.053217 0.300000 0.600000 0.000000
0.001458 -0.624831 0.320192 0.500000 0.000000 0.500000
0.596322 0.644856 0.208611 0.300000 0.600000 0.000000
-0.326421 -0.358022 -0.313231 0.300000 0.000000 0.600000
0.126418 0.213071 -0.307021 0.300000 0.000000 0.600000
0.317774 -0.377181 0.320192 0.500000 0.000000 0.500000
0.383989 0.253610 0.123343 0.000000 0.000000 1.000000
-0.612565 -0.531175 0.204468 0.600000 0.000000 0.300000
0.184828 0.714100 -0.219980 0.300000 0.000000 0.600000
-0.151246 0.258717 -0.121083 0.000000 0.000000 1.000000
-0.383574 0.435199 0.320192 0.500000 0.000000 0.500000
0.608159 0.747221 -0.233364 0.300000 0.600000 0.000000
-0.612565 -0.406988 0.086375 0.600000 0.000000 0.300000
0.629442 0.690480 -0.094860 0.300000 0.600000 0.000000
0.172001 -0.620032 -0.313231 0.300000 0.000000 0.600000
0.016634 0.187162 0.168565 0.500000 0.500000 0.000000
-0.612565 -0.450524 -0.168758 0.600000 0.000000 0.300000
-0.197863 0.697325 0.320192 0.500000 0.000000 0.500000
0.596322 -0.054316 -0.064330 0.300000 0.600000 0.000000
-0.082445 0.311614 0.287072 0.500000 0.000000 0.500000
-0.545901 -0.187600 -0.313231 0.300000 0.000000 0.600000
-0.391358 0.253409 -0.133006 0.000000 0.000000 1.000000
-0.128492 0.558621 0.287072 0.500000 0.000000 0.500000
0.051197 0.714100 0.000912 0.300000 0.000000 0.600000
-0.189884 -0.483687 0.105615 1.000000 0.000000 0.000000
-0.253715 -0.618770 -0.096267 0.000000 1.000000 0.000000
0.629442 -0.358386 -0.327943 0.300000 0.600000 0.000000
0.256980 -0.618770 0.089120 0.000000 1.000000 0.000000
0.363725 -0.618770 0.228061 0.000000 1.000000 0.000000
-0.090276 -0.516569 -0.031275 1.000000 0.000000 0.000000
-0.333117 -0.494349 0.210377 1.000000 0.000000 0.000000
-0.203923 -0.618770 0.096278 0.000000 1.000000 0.000000
0.150541 0.187162 -0.222455 0.500000 0.500000 0.000000
0.307580 -0.701788 -0.061603 0.600000 0.300000 0.000000
-0.387155 -0.494766 -0.313231 0.300000 0.000000 0.600000
-0.612565 0.080046 0.281474 0.600000 0.000000 0.300000
-0.170206 0.404094 -0.313231 0.300000 0.000000 0.600000
-0.134270 -0.701788 -0.221486 0.600000 0.300000 0.000000
-0.606970 -0.682577 0.320192 0.500000 0.000000 0.500000
-0.258111 0.306941 0.320192 0.500000 0.000000 0.500000
-0.555469 -0.516468 0.320192 0.500000 0.000000 0.500000
-0.156827 0.187162 0.049268 0.500000 0.500000 0.000000
0.539525 -0.405452 0.137945 1.000000 0.000000 0.000000
0.160481 -0.636320 0.320192 0.500000 0.000000 0.500000
-0.224369 -0.701788 -0.196805 0.600000 0.300000 0.000000
0.484554 -0.701788 -0.118665 0.600000 0.300000 0.000000
0.629442 -0.051000 -0.253532 0.300000 0.600000 0.000000
-0.463539 -0.701788 0.011232 0.600000 0.300000 0.000000
0.544911 -0.155685 0.287072 0.500000 0.000000 0.500000
0.022475 0.747221 -0.310122 0.300000 0.000000 0.600000
0.250791 -0.701788 0.227905 0.600000 0.300000 0.000000
0.247718 0.372236 -0.307021 0.300000 0.000000 0.600000
0.550046 0.133348 0.320192 0.500000 0.000000 0.500000
0.432229 0.310530 0.292176 0.000000 0.000000 1.000000
0.412360 -0.562196 -0.313231 0.300000 0.000000 0.600000
0.629442 -0.093433 0.131287 0.300000 0.600000 0.000000
0.149467 -0.384062 -0.307021 0.300000 0.000000 0.600000
0.241069 0.563072 -0.307021 0.300000 0.000000 0.600000
0.629442 0.503042 0.115910 0.300000 0.600000 0.000000
-0.144616 -0.406332 0.140504 1.000000 0.000000 0.000000
-0.579445 -0.292481 0.012104 0.600000 0.000000 0.300000
-0.555703 0.156050 -0.313231 0.300000 0.000000 0.600000
0.417986 -0.616699 0.007146 0.000000 1.000000 0.000000
-0.579445 -0.266779 -0.226855 0.600000 0.000000 0.300000
0.554922 0.663796 -0.265661 0.000000 0.000000 1.000000
-0.292395 0.674833 -0.313231 0.300000 0.000000 0.600000
0.629442 0.050167 -0.123054 0.300000 0.600000 0.000000
-0.209171 -0.532548 0.320192 0.500000 0.000000 0.500000
-0.612565 -0.213862 -0.150879 0.600000 0.000000 0.300000
0.479727 0.257577 -0.123870 0.000000 0.000000 1.000000
-0.210596 -0.437412 0.287072 0.500000 0.000000 0.500000
-0.276398 0.187162 0.202330 0.500000 0.500000 0.000000
-0.189874 -0.459804 -0.114349 1.000000 0.000000 0.000000
0.293289 -0.615298 -0.307021 0.300000 0.000000 0.600000
0.064930 0.012967 0.320192 0.500000 0.000000 0.500000
0.596322 -0.264270 -0.244378 0.300000 0.600000 0.000000
0.360409 0.714100 0.046712 0.300000 0.000000 0.600000
-0.079239 -0.477209 -0.307021 0.300000 0.000000 0.600000
-0.029843 0.157097 -0.307021 0.300000 0.000000 0.600000
-0.483537 0.187162 0.181000 0.500000 0.500000 0.000000
-0.079802 -0.701788 -0.066344 0.600000 0.300000 0.000000
-0.510135 -0.618770 0.092007 0.000000 1.000000 0.000000
0.148097 -0.515471 0.091073 1.000000 0.000000 0.000000
-0.248816 0.187162 -0.214245 0.500000 0.500000 0.000000
-0.289639 -0.118165 0.320192 0.500000 0.000000 0.500000
0.083404 -0.701788 -0.199060 0.600000 0.300000 0.000000
0.419105 0.145308 0.287072 0.500000 0.000000 0.500000
-0.612565 -0.701481 -0.106267 0.600000 0.000000 0.300000
0.629442 0.347678 -0.217337 0.300000 0.600000 0.000000
0.471948 0.714100 -0.201680 0.300000 0.000000 0.600000
0.009377 0.247360 0.004814 0.000000 0.000000 1.000000
0.438220 -0.529804 0.054443 1.000000 0.000000 0.000000
0.337603 -0.701788 0.070298 0.600000 0.300000 0.000000
-0.442393 -0.618770 -0.084047 0.000000 1.000000 0.000000
0.629442 -0.215400 -0.066610 0.300000 0.600000 0.000000
-0.055793 0.187162 0.089476 0.500000 0.500000 0.000000
-0.170808 0.569059 -0.307021 0.300000 0.000000 0.600000
0.087587 -0.631029 -0.313231 0.300000 0.000000 0.600000
0.506319 -0.618770 0.164089 0.000000 1.000000 0.000000
-0.246889 0.259420 0.163370 0.000000 0.000000 1.000000
-0.469682 -0.668668 -0.196577 0.600000 0.300000 0.000000
-0.380814 -0.035805 0.320192 0.500000 0.000000 0.500000
0.009060 0.267180 0.320192 0.500000 0.000000 0.500000
0.541831 -0.403936 -0.142455 1.000000 0.000000 0.000000
0.596322 0.577539 -0.190383 0.300000 0.600000 0.000000
0.068139 -0.668668 0.236261 0.600000 0.300000 0.000000
-0.324628 0.482285 -0.313231 0.300000 0.000000 0.600000
0.147975 0.187162 -0.052479 0.500000 0.500000 0.000000
0.224767 -0.618770 -0.149275 0.000000 1.000000 0.000000
-0.144577 -0.404858 -0.160087 1.000000 0.000000 0.000000
0.629442 -0.561334 0.080960 0.300000 0.600000 0.000000
0.035352 0.189232 -0.183725 0.500000 0.500000 0.000000
0.629442 -0.097529 -0.331701 0.300000 0.600000 0.000000
-0.527490 -0.529571 0.069167 1.000000 0.000000 0.000000
0.536745 0.071023 -0.313231 0.300000 0.000000 0.600000
-0.612565 -0.401824 -0.316831 0.600000 0.000000 0.300000
0.083977 -0.230374 0.287072 0.500000 0.000000 0.500000
-0.380306 -0.701788 -0.193111 0.600000 0.300000 0.000000
-0.047360 -0.451515 -0.188450 1.000000 0.000000 0.000000
-0.127422 0.255037 0.002238 0.000000 0.000000 1.000000
-0.507056 -0.534790 -0.056871 1.000000 0.000000 0.000000
0.287811 0.259433 -0.028355 0.000000 0.000000 1.000000
-0.318175 -0.701788 0.094671 0.600000 0.300000 0.000000
-0.612565 -0.172485 0.114203 0.600000 0.000000 0.300000
-0.483699 -0.652897 -0.307021 0.300000 0.000000 0.600000
0.625025 -0.284859 0.319501 0.500000 0.000000 0.500000
0.430363 0.086369 -0.307021 0.300000 0.000000 0.600000
0.243580 0.244174 -0.313231 0.300000 0.000000 0.600000
-0.491094 -0.467629 0.287072 0.500000 0.000000 0.500000
-0.145369 -0.118633 -0.313231 0.300000 0.000000 0.600000
0.546260 0.397506 -0.313231 0.300000 0.000000 0.600000
0.212593 -0.550175 0.242765 1.000000 0.000000 0.000000
-0.375423 -0.701788 -0.053606 0.600000 0.300000 0.000000
0.034037 0.187162 0.086250 0.500000 0.500000 0.000000
-0.292831 -0.595999 -0.233823 0.000000 1.000000 0.000000
0.382996 0.040559 0.320192 0.500000 0.000000 0.500000
-0.316369 0.385229 -0.313231 0.300000 0.000000 0.600000
-0.579445 -0.610245 -0.222413 0.600000 0.000000 0.300000
-0.501189 0.200759 0.320192 0.500000 0.000000 0.500000
-0.557466 0.694562 -0.141420 0.800000 0.200000 0.500000
-0.335256 -0.461224 -0.113689 1.000000 0.000000 0.000000
0.148980 -0.701788 0.255738 0.600000 0.300000 0.000000
-0.578035 -0.409259 0.320192 0.500000 0.000000 0.500000
-0.579445 -0.068571 0.121525 0.600000 0.000000 0.300000
0.221781 0.187162 0.120944 0.500000 0.500000 0.000000
0.544823 0.043038 0.287072 0.500000 0.000000 0.500000
0.255440 0.087431 0.320192 0.500000 0.000000 0.500000
-0.579445 0.393624 0.052809 0.600000 0.000000 0.300000
0.358265 -0.113170 0.320192 0.500000 0.000000 0.500000
-0.612565 0.093983 -0.146193 0.600000 0.000000 0.300000
0.629442 -0.649409 0.268806 0.300000 0.600000 0.000000
-0.407959 -0.626327 -0.267041 0.300000 0.000000 0.600000
-0.248821 0.189232 0.083576 0.500000 0.500000 0.000000
0.629442 0.155294 0.049411 0.300000 0.600000 0.000000
-0.347515 -0.160080 -0.307021 0.300000 0.000000 0.600000
0.226065 -0.238590 -0.313231 0.300000 0.000000 0.600000
0.313139 -0.436148 -0.313231 0.300000 0.000000 0.600000
-0.334026 0.187162 0.083574 0.500000 0.500000 0.000000
0.589671 0.537911 0.320192 0.500000 0.000000 0.500000
-0.256654 -0.652820 0.320192 0.500000 0.000000 0.500000
0.132795 -0.464581 -0.307021 0.300000 0.000000 0.600000
0.543863 0.628061 0.320192 0.500000 0.000000 0.500000
0.425393 -0.616699 -0.168100 0.000000 1.000000 0.000000
-0.098935 0.253804 -0.193375 0.000000 0.000000 1.000000
0.629442 0.228751 -0.098851 0.300000 0.600000 0.000000
-0.163244 -0.379060 0.320192 0.500000 0.000000 0.500000
0.562396 0.568682 -0.307021 0.300000 0.000000 0.600000
0.126420 0.150149 0.320192 0.500000 0.000000 0.500000
0.250514 -0.477959 0.320192 0.500000 0.000000 0.500000
0.372030 -0.199728 -0.313231 0.300000 0.000000 0.600000
0.390873 -0.626327 -0.252468 0.300000 0.000000 0.600000
-0.612565 0.258829 -0.142707 0.600000 0.000000 0.300000
-0.253174 -0.511082 0.216991 1.000000 0.000000 0.000000
0.534211 -0.701788 -0.199205 0.600000 0.300000 0.000000
-0.124211 0.117374 -0.307021 0.300000 0.000000 0.600000
-0.579445 0.371686 0.201662 0.600000 0.000000 0.300000
-0.234142 -0.668668 0.184959 0.600000 0.300000 0.000000
0.161846 -0.129722 0.287072 0.500000 0.000000 0.500000
-0.237636 -0.510554 -0.307021 0.300000 0.000000 0.600000
0.548695 0.204361 0.138630 0.500000 0.500000 0.000000
-0.420536 0.747221 -0.066516 0.300000 0.000000 0.600000
0.298099 0.418061 0.320192 0.500000 0.000000 0.500000
-0.094268 0.029578 0.320192 0.500000 0.000000 0.500000
-0.494058 -0.626327 0.253255 0.600000 0.300000 0.000000
0.550942 -0.477634 -0.313231 0.300000 0.000000 0.600000
-0.090405 -0.618770 -0.139719 0.000000 1.000000 0.000000
0.457901 0.714100 0.115993 0.300000 0.000000 0.600000
0.253819 -0.616699 -0.060090 0.000000 1.000000 0.000000
0.166548 -0.616699 0.001332 0.000000 1.000000 0.000000
0.596322 0.381348 0.085366 0.300000 0.600000 0.000000
0.334990 0.248669 -0.234309 0.000000 0.000000 1.000000
-0.612565 0.586329 -0.160485 0.600000 0.000000 0.300000
-0.010750 -0.003739 -0.313231 0.300000 0.000000 0.600000
-0.032470 -0.701788 -0.255767 0.600000 0.300000 0.000000
0.383262 -0.297608 -0.313231 0.300000 0.000000 0.600000
0.586840 0.250084 -0.251929 0.500000 0.000000 0.500000
-0.530285 -0.273665 -0.313231 0.300000 0.000000 0.600000
-0.612552 -0.701788 0.123566 0.600000 0.000000 0.300000
-0.403575 -0.701788 0.106434 0.600000 0.300000 0.000000
-0.424054 0.239501 -0.313231 0.300000 0.000000 0.600000
0.303823 0.747221 0.121821 0.300000 0.000000 0.600000
0.396204 -0.701788 0.230912 0.600000 0.300000 0.000000
0.072677 0.312170 0.290414 0.000000 0.000000 1.000000
-0.612565 0.671784 -0.326864 0.600000 0.000000 0.300000
-0.579445 0.056379 -0.053419 0.600000 0.000000 0.300000
0.136947 0.133186 -0.307021 0.300000 0.000000 0.600000
0.451894 0.738714 -0.313231 0.300000 0.000000 0.600000
0.103704 -0.404425 0.144190 1.000000 0.000000 0.000000
-0.411093 -0.618770 0.011306 0.000000 1.000000 0.000000
-0.612565 0.213288 -0.047922 0.600000 0.000000 0.300000
0.629442 -0.349792 0.178017 0.300000 0.600000 0.000000
0.388357 -0.701788 -0.225038 0.600000 0.300000 0.000000
0.629442 -0.113306 -0.178279 0.300000 0.600000 0.000000
-0.288929 0.714100 0.079879 0.300000 0.000000 0.600000
-0.311994 -0.299299 0.287072 0.500000 0.000000 0.500000
-0.537518 -0.701788 -0.137376 0.600000 0.300000 0.000000
0.389981 -0.005789 -0.313231 0.300000 0.000000 0.600000
-0.612565 -0.613723 0.242867 0.600000 0.000000 0.300000
-0.579445 -0.350157 0.236617 0.600000 0.000000 0.300000
-0.146270 -0.602044 -0.307021 0.300000 0.000000 0.600000
-0.199966 0.414176 0.320192 0.500000 0.000000 0.500000
0.079337 0.296119 -0.313231 0.300000 0.000000 0.600000
-0.478838 -0.402414 -0.150744 1.000000 0.000000 0.000000
-0.612565 -0.095151 -0.042207 0.600000 0.000000 0.300000
0.301046 0.156407 -0.307021 0.300000 0.000000 0.600000
-0.509410 0.366344 -0.313231 0.300000 0.000000 0.600000
0.076113 -0.551322 -0.241643 1.000000 0.000000 0.000000
-0.410965 -0.013169 -0.313231 0.300000 0.000000 0.600000
-0.568486 0.256035 -0.234788 0.000000 0.500000 0.500000
0.629442 0.278458 0.154103 0.300000 0.600000 0.000000
0.491800 0.742396 0.287072 0.500000 0.000000 0.500000
0.629442 0.717452 0.281802 0.300000 0.600000 0.000000
0.512001 -0.022133 0.320192 0.500000 0.000000 0.500000
0.219286 0.187162 0.206310 0.500000 0.500000 0.000000
-0.612565 -0.535601 0.060651 0.600000 0.000000 0.300000
0.573944 -0.484867 0.320192 0.500000 0.000000 0.500000
-0.612565 -0.612538 -0.150402 0.600000 0.000000 0.300000
-0.113308 0.189232 -0.117928 0.500000 0.500000 0.000000
-0.156989 -0.592129 0.320192 0.500000 0.000000 0.500000
0.395810 0.747221 -0.181782 0.300000 0.000000 0.600000
-0.096000 -0.462165 0.112544 1.000000 0.000000 0.000000
0.249924 0.714100 -0.167221 0.300000 0.000000 0.600000
-0.612565 -0.326047 0.090685 0.600000 0.000000 0.300000
0.245523 -0.459267 0.194233 1.000000 0.000000 0.000000
-0.180384 -0.643394 -0.249109 0.300000 0.000000 0.600000
0.431860 0.569848 -0.307021 0.300000 0.000000 0.600000
0.192077 -0.701788 0.057662 0.600000 0.300000 0.000000
-0.579445 -0.441261 0.023398 0.600000 0.000000 0.300000
-0.292175 0.570693 0.320192 0.500000 0.000000 0.500000
-0.017864 -0.330473 -0.313231 0.300000 0.000000 0.600000
-0.612565 -0.443698 0.177114 0.600000 0.000000 0.300000
0.182292 0.653229 0.320192 0.500000 0.000000 0.500000
-0.500647 0.050565 0.287072 0.500000 0.000000 0.500000
-0.162969 -0.557998 -0.240514 1.000000 0.000000 0.000000
