ply
format ascii 1.0
element vertex 1269
property float x
property float y
property float z
property uchar red
property uchar green
property uchar blue
end_header
0.629441 -0.569407 -0.191706 76 153 0
0.193797 0.400322 0.320192 127 0 127
-0.126019 -0.557247 0.287071 127 0 127
0.188568 0.353597 0.287071 127 0 127
-0.459233 -0.400860 0.287071 127 0 127
0.476518 0.714100 0.158646 76 0 153
-0.255439 -0.630620 -0.307022 76 0 153
0.140866 -0.701788 -0.188167 153 76 0
-0.527505 0.747221 0.228971 76 0 153
-0.405838 0.747221 0.098930 76 0 153
0.596321 -0.555823 -0.122820 76 153 0
-0.612566 -0.114958 0.256448 153 0 76
-0.544002 0.714100 0.188743 76 0 153
-0.334175 -0.414573 0.132470 255 0 0
-0.000371 0.256630 0.204616 0 0 255
0.629441 -0.543240 -0.034198 76 153 0
0.065954 -0.091924 0.287071 127 0 127
0.386452 -0.701788 0.137752 153 76 0
0.537370 0.594108 0.320192 127 0 127
0.077399 -0.633705 -0.249110 76 0 153
-0.527203 0.723468 0.320192 127 0 127
-0.612566 -0.644754 0.049827 153 0 76
-0.215193 -0.233632 0.320192 127 0 127
0.508749 0.714100 0.141357 76 0 153
0.257792 -0.697648 0.305692 127 0 127
-0.612566 -0.633689 -0.156562 153 0 76
0.368650 0.317859 0.320192 127 0 127
0.596321 0.678811 0.188336 76 153 0
-0.345434 0.253867 0.103216 0 0 255
-0.612566 -0.628997 -0.067831 153 0 76
0.082933 -0.575551 0.287071 127 0 127
-0.612566 -0.110275 0.045950 153 0 76
-0.612566 -0.060411 0.286162 153 0 76
-0.307791 -0.668668 0.124306 153 76 0
-0.579446 -0.043934 0.113284 153 0 76
0.478379 0.127623 0.287071 127 0 127
0.596321 -0.658000 -0.282516 76 153 0
-0.579446 -0.644439 -0.000241 153 0 76
0.358139 0.189232 0.142115 127 127 0
0.290370 -0.595585 0.287071 127 0 127
-0.141539 -0.668668 0.171805 153 76 0
0.449648 -0.069948 0.320192 127 0 127
-0.579446 0.055205 -0.020295 153 0 76
-0.375727 -0.051094 0.287071 127 0 127
-0.368461 0.747221 0.118675 76 0 153
-0.612566 0.411984 0.144468 153 0 76
0.629441 -0.695160 0.286062 127 0 127
-0.116944 -0.229237 0.320192 127 0 127
-0.025564 0.051165 0.320192 127 0 127
-0.456534 -0.621263 -0.307022 76 0 153
-0.571197 -0.668668 -0.148584 153 76 0
0.421718 0.154708 -0.313232 76 0 153
-0.579446 0.358130 -0.084185 153 0 76
-0.612566 -0.386766 0.222157 153 0 76
0.363322 0.161461 0.287071 127 0 127
0.269433 -0.642243 0.287071 153 76 0
0.596321 0.527622 0.038644 76 153 0
0.571677 -0.100451 0.287071 127 0 127
0.629441 -0.615831 -0.141100 76 153 0
0.184437 -0.701788 -0.298267 153 76 0
0.147868 0.550980 0.320192 127 0 127
0.629441 -0.563236 0.092417 76 153 0
-0.612566 0.701553 -0.258938 153 0 76
0.302199 -0.530932 -0.307022 76 0 153
0.629441 0.437568 -0.159748 76 153 0
0.275267 0.189232 -0.169336 127 127 0
-0.612566 0.673798 0.141015 153 0 76
-0.173797 -0.626327 0.259529 153 76 0
-0.357968 0.187162 0.179018 127 127 0
-0.305483 -0.701788 0.165449 153 76 0
0.560401 0.073319 0.320192 127 0 127
0.337873 -0.637201 -0.249110 76 0 153
0.629441 -0.060530 0.239855 76 153 0
-0.271587 0.660475 0.287071 127 0 127
-0.171478 -0.668668 -0.016615 153 76 0
-0.394297 0.258680 -0.025883 0 0 255
-0.588220 -0.403036 0.320192 127 0 127
0.409624 -0.668668 -0.222469 153 76 0
-0.612566 -0.077089 -0.298802 153 0 76
0.596321 0.341075 -0.266886 76 153 0
0.402480 0.189232 0.129274 127 127 0
-0.035901 0.594783 -0.307022 76 0 153
-0.579446 0.045033 -0.176133 153 0 76
-0.612566 -0.678996 -0.190782 153 0 76
-0.168531 -0.618769 0.209914 0 255 0
-0.504463 -0.668668 -0.002310 153 76 0
-0.152739 -0.668668 0.062380 153 76 0
-0.341381 0.254267 -0.063243 0 0 255
-0.513927 -0.128552 -0.307022 76 0 153
0.629441 -0.067570 -0.002409 76 153 0
0.076245 -0.701788 0.003881 153 76 0
0.568615 0.714100 -0.180656 0 0 255
0.476686 0.189232 -0.008324 127 127 0
-0.499283 -0.524549 0.287071 127 0 127
-0.065954 -0.668668 -0.037159 153 76 0
0.596321 -0.377173 -0.138342 76 153 0
-0.068213 0.290879 0.287071 0 0 255
0.596321 0.258064 0.024848 76 153 0
-0.436641 -0.475275 0.200555 255 0 0
0.007059 0.618660 0.320192 127 0 127
0.531456 0.532194 0.287071 127 0 127
-0.221666 -0.535863 0.060966 255 0 0
0.417516 0.216344 0.320192 127 0 127
0.397613 0.714100 0.164668 76 0 153
0.087469 0.320531 0.287071 0 0 255
0.171190 -0.327227 0.320192 127 0 127
-0.228041 0.647566 -0.313232 76 0 153
0.239876 0.747221 0.111668 76 0 153
0.107370 -0.345596 -0.313232 76 0 153
-0.543946 -0.637968 0.253153 153 0 76
0.629441 -0.346753 0.233656 76 153 0
0.277914 0.043854 0.287071 127 0 127
0.357418 0.183644 -0.307022 76 0 153
0.596321 -0.341875 -0.234476 76 153 0
-0.164852 -0.595999 -0.237976 0 255 0
-0.579446 -0.671112 0.242684 153 76 0
-0.525030 0.305907 -0.313232 76 0 153
0.629441 0.010120 -0.052078 76 153 0
0.300047 0.130083 0.287071 127 0 127
-0.612566 -0.599766 0.262291 153 0 76
0.191755 0.621483 0.287071 127 0 127
-0.322187 0.747221 -0.128390 76 0 153
0.629441 -0.329428 -0.132183 76 153 0
-0.612566 -0.208468 0.044850 153 0 76
-0.005666 -0.166922 0.320192 127 0 127
-0.460511 0.531506 0.320192 127 0 127
-0.422537 0.339955 0.320192 127 0 127
0.330845 0.589607 0.320192 127 0 127
-0.385401 -0.646120 -0.313232 76 0 153
-0.612566 -0.483575 0.268594 153 0 76
-0.237626 -0.515104 -0.026060 255 0 0
-0.392134 -0.159832 -0.313232 76 0 153
0.596321 -0.482706 0.141895 76 153 0
0.326941 -0.372809 0.287071 127 0 127
-0.233946 0.233241 -0.313232 76 0 153
-0.182817 -0.701788 0.254162 153 76 0
-0.492217 -0.596458 -0.313232 76 0 153
-0.080003 0.142765 -0.307022 76 0 153
0.209740 0.398546 -0.307022 76 0 153
-0.242832 0.425126 -0.313232 76 0 153
0.240809 0.264922 0.266852 127 0 127
0.569806 0.747221 -0.096684 76 0 153
0.596321 -0.408334 -0.063142 76 153 0
0.101732 -0.438598 -0.182941 255 0 0
-0.450712 0.189232 -0.126577 127 127 0
-0.582870 -0.347602 -0.333932 153 0 76
0.078971 -0.519767 0.320192 127 0 127
-0.612566 -0.242592 -0.013325 153 0 76
0.629441 0.339520 -0.184224 76 153 0
-0.076430 0.714100 -0.221640 76 0 153
0.596321 -0.468405 -0.059817 76 153 0
-0.009635 -0.110991 0.287071 127 0 127
0.189200 0.251696 0.320192 127 0 127
-0.432792 -0.668668 -0.163519 153 76 0
0.592347 -0.241289 0.287071 76 153 0
0.629441 -0.374201 -0.100150 76 153 0
0.353384 -0.007991 -0.313232 76 0 153
-0.182318 -0.662458 -0.257105 76 0 153
-0.612566 0.724371 0.217863 153 0 76
0.629441 -0.354800 0.180231 76 153 0
0.547768 -0.583388 0.320192 127 0 127
-0.612566 0.352085 0.161949 153 0 76
0.446293 -0.301703 -0.313232 76 0 153
-0.612566 -0.507091 -0.104569 153 0 76
0.501209 -0.652230 0.287071 127 0 127
0.501249 -0.297863 0.287071 127 0 127
-0.301875 -0.037645 0.287071 127 0 127
0.596321 0.670957 -0.055790 76 153 0
0.173863 0.653702 -0.307022 76 0 153
0.606218 0.679482 0.287071 127 0 127
0.196188 -0.376000 0.320192 127 0 127
-0.164781 0.254070 -0.232816 0 0 255
-0.579446 0.076694 -0.117681 153 0 76
-0.477837 -0.697648 0.292924 127 0 127
0.278836 0.747221 0.102478 76 0 153
-0.117119 0.209367 -0.307022 76 0 153
-0.129078 0.653910 0.320192 127 0 127
-0.584678 -0.248204 -0.307022 153 0 76
-0.043377 0.747221 -0.170680 76 0 153
-0.579446 -0.685804 -0.216187 153 76 0
-0.612566 0.288838 0.179348 153 0 76
-0.300965 -0.701788 0.233610 153 76 0
0.039070 0.021106 0.320192 127 0 127
0.629441 0.664105 -0.093592 76 153 0
-0.264822 -0.668668 -0.017608 153 76 0
-0.191832 -0.572175 0.320192 127 0 127
0.504395 -0.616699 0.094859 0 255 0
0.219805 0.699823 0.320192 127 0 127
0.392513 -0.531730 0.287071 127 0 127
0.434384 -0.027831 0.320192 127 0 127
0.028664 0.714100 0.252247 76 0 153
-0.333130 0.539867 0.287071 127 0 127
0.629441 0.731258 0.171120 76 153 0
-0.457231 -0.668668 0.079014 153 76 0
0.445005 0.202089 0.287071 127 0 127
-0.437754 0.676402 0.320192 127 0 127
-0.579446 0.459407 -0.237641 153 0 76
-0.248978 0.038230 0.320192 127 0 127
-0.063936 0.747221 0.128757 76 0 153
-0.549492 0.171738 0.287071 127 0 127
0.297737 -0.618769 0.006004 0 255 0
-0.612566 0.228498 -0.102280 153 0 76
-0.530194 -0.386422 0.287071 127 0 127
0.533576 -0.193151 0.287071 127 0 127
0.499497 0.209932 -0.229957 127 127 0
-0.612566 0.157848 -0.210461 153 0 76
-0.356881 -0.447125 0.320192 127 0 127
-0.093542 -0.616699 0.121132 0 255 0
-0.367703 0.273351 0.287071 127 0 127
0.451643 0.450748 0.320192 127 0 127
-0.490616 0.259221 0.102447 0 0 255
-0.175844 -0.618769 0.081839 0 255 0
-0.496148 0.287475 -0.313232 76 0 153
-0.006564 -0.662437 0.320192 127 0 127
-0.579446 0.509890 0.220366 153 0 76
-0.071432 0.216239 0.320192 127 0 127
0.310288 0.511620 0.320192 127 0 127
-0.379806 0.352049 -0.307022 76 0 153
0.228724 -0.062241 0.287071 127 0 127
0.382258 0.250804 0.244512 0 0 255
-0.612566 0.316319 0.023500 153 0 76
0.596321 0.462586 -0.120258 76 153 0
-0.304853 0.747221 0.274454 127 0 127
-0.251963 -0.252717 0.320192 127 0 127
-0.390078 -0.610810 0.287071 153 76 0
0.629441 0.209503 -0.126941 76 153 0
0.437957 0.399551 0.287071 127 0 127
-0.141893 0.306863 -0.313232 76 0 153
0.399921 -0.668668 0.014268 153 76 0
0.332091 0.714100 -0.222063 76 0 153
0.081868 -0.263739 -0.313232 76 0 153
-0.583616 0.747221 -0.109829 76 0 153
0.265047 0.668635 0.320192 127 0 127
-0.538046 0.700448 -0.247300 76 0 153
0.244510 -0.668668 -0.200175 153 76 0
0.554920 0.657597 -0.237189 0 0 255
0.569259 0.593170 -0.307022 76 0 153
-0.612566 0.055629 0.022860 153 0 76
-0.443440 0.747221 -0.276055 76 0 153
0.629441 -0.461851 -0.075760 76 153 0
-0.289721 -0.507563 0.320192 127 0 127
-0.319447 -0.668668 -0.219039 153 76 0
-0.316029 -0.289544 0.287071 127 0 127
0.629441 0.162068 0.258001 76 153 0
0.629441 -0.030416 -0.045530 76 153 0
-0.012816 0.714100 0.073151 76 0 153
-0.410534 -0.701788 -0.159821 153 76 0
-0.064802 -0.668668 -0.197487 153 76 0
-0.466809 -0.489615 0.320192 127 0 127
0.355931 0.747221 0.206787 76 0 153
0.297794 -0.300400 -0.313232 76 0 153
-0.579446 -0.232735 -0.234110 153 0 76
0.107677 0.714100 0.113324 76 0 153
-0.405173 0.410879 0.287071 127 0 127
-0.199227 -0.633849 -0.282980 76 0 153
-0.579446 0.627162 0.127093 153 0 76
-0.253772 -0.217595 0.320192 127 0 127
-0.211132 0.592575 0.287071 127 0 127
-0.560148 0.714100 -0.271478 76 0 153
-0.063603 -0.701788 -0.285022 153 76 0
0.629441 0.629912 0.246663 76 153 0
-0.612566 0.456530 0.204689 153 0 76
0.596321 -0.228319 0.118683 76 153 0
-0.579446 -0.032695 -0.294248 153 0 76
-0.035714 -0.701788 0.094911 153 76 0
-0.094100 -0.422048 0.287071 127 0 127
-0.579446 0.652195 0.006972 153 0 76
0.462292 -0.319241 0.320192 127 0 127
0.596321 -0.583664 -0.184875 76 153 0
0.237018 0.187162 -0.135245 127 127 0
-0.424123 -0.604818 -0.313232 76 0 153
0.053903 -0.668668 0.026571 153 76 0
0.059454 -0.188526 0.320192 127 0 127
-0.579446 -0.215795 0.165316 153 0 76
-0.416913 0.317254 0.287071 0 0 255
-0.612566 0.746291 -0.235456 153 0 76
0.054317 -0.618769 0.203636 0 255 0
-0.588529 -0.701788 -0.281254 153 0 76
-0.108308 0.747010 -0.313232 76 0 153
-0.202984 0.662550 0.320192 127 0 127
0.530899 -0.428877 0.287071 127 0 127
-0.505482 0.747221 0.016339 76 0 153
-0.365133 0.578481 0.287071 127 0 127
-0.167940 -0.199817 0.320192 127 0 127
-0.612566 0.281335 0.138501 153 0 76
0.581747 -0.345549 0.287071 127 0 127
-0.451561 -0.529025 0.057295 255 0 0
-0.612566 0.606904 0.239656 153 0 76
0.210603 0.130359 0.287071 127 0 127
-0.141616 0.735552 0.287071 127 0 127
-0.104983 0.747221 0.127713 76 0 153
-0.467212 0.207862 0.255743 127 127 0
-0.125577 0.304012 0.287071 127 0 127
-0.059436 0.189232 0.082176 127 127 0
0.193725 0.747221 0.176235 76 0 153
-0.612566 -0.199982 -0.140724 153 0 76
-0.612566 0.622195 0.281606 153 0 76
0.091566 -0.138891 -0.307022 76 0 153
0.382287 0.256126 -0.131710 0 0 255
-0.255915 0.297429 -0.307022 76 0 153
0.629441 0.523914 0.096782 76 153 0
0.343115 0.498370 0.320192 127 0 127
-0.426000 0.370837 -0.307022 76 0 153
0.166930 0.747221 0.244863 76 0 153
-0.052284 -0.668668 0.225208 153 76 0
0.436018 -0.618769 0.000774 0 255 0
0.629441 0.738784 0.104265 76 153 0
-0.082868 -0.065136 0.320192 127 0 127
-0.184902 0.526275 -0.313232 76 0 153
0.629441 -0.215062 -0.185485 76 153 0
-0.612566 -0.180505 -0.303866 153 0 76
-0.076128 -0.668668 0.165815 153 76 0
-0.259045 -0.595999 -0.248717 0 255 0
-0.558746 0.181938 -0.117312 0 127 127
0.629441 -0.263549 -0.071418 76 153 0
0.629441 -0.483907 -0.124552 76 153 0
0.356139 0.241260 -0.313232 76 0 153
0.347981 0.478244 -0.307022 76 0 153
-0.579446 0.309215 -0.276172 153 0 76
0.515121 -0.190302 0.320192 127 0 127
0.060595 0.714100 -0.153608 76 0 153
0.003959 0.413843 0.320192 127 0 127
-0.612566 -0.585839 -0.116708 153 0 76
0.157121 0.187162 -0.177082 127 127 0
-0.612566 -0.404987 -0.257667 153 0 76
-0.519100 0.310665 0.320192 127 0 127
0.596321 0.622973 -0.108867 76 153 0
0.629441 -0.493312 -0.058422 76 153 0
0.222788 0.747221 0.224750 76 0 153
-0.612566 -0.325429 -0.183332 153 0 76
0.370949 -0.639720 0.253153 153 76 0
-0.612566 -0.148149 0.012308 153 0 76
-0.563281 -0.129201 -0.313232 153 0 76
0.203620 0.714100 -0.199782 76 0 153
-0.378723 -0.701788 -0.006923 153 76 0
0.019956 0.666634 0.320192 127 0 127
0.304281 0.747221 -0.064866 76 0 153
0.603578 0.183458 0.287071 127 0 127
-0.043021 -0.520879 -0.037894 255 0 0
0.434658 0.747221 0.171541 76 0 153
0.113253 -0.367801 0.320192 127 0 127
-0.564956 0.207038 -0.175648 0 127 127
-0.413548 0.714100 0.237663 76 0 153
-0.064512 -0.502162 -0.313232 76 0 153
-0.103414 -0.495622 -0.313232 76 0 153
-0.612566 0.178481 -0.048972 153 0 76
-0.202304 -0.701788 -0.154804 153 76 0
0.629441 -0.190939 -0.106765 76 153 0
0.629441 0.094008 -0.277388 76 153 0
-0.550505 0.676848 0.287071 127 0 127
-0.579446 -0.090501 0.089453 153 0 76
0.629441 0.245602 -0.204723 76 153 0
-0.612566 -0.146918 -0.070319 153 0 76
0.596321 0.342645 0.196038 76 153 0
0.128781 0.188738 0.287071 127 0 127
0.144294 0.253979 -0.055816 0 0 255
0.629441 -0.290925 0.282229 76 153 0
-0.209624 0.714100 0.227241 76 0 153
0.299216 0.482661 -0.313232 76 0 153
0.629441 0.646239 -0.183133 76 153 0
0.294830 0.747221 0.250870 76 0 153
-0.249654 0.386032 0.320192 127 0 127
0.268192 0.039628 0.320192 127 0 127
-0.061887 0.747221 0.052807 76 0 153
-0.497579 -0.668668 -0.163896 153 76 0
-0.525445 0.210706 0.287071 127 0 127
-0.612566 0.710364 -0.020406 153 0 76
-0.377649 0.189232 -0.152355 127 127 0
-0.293361 -0.129786 0.287071 127 0 127
-0.517779 0.747221 0.265866 76 0 153
-0.612566 -0.494327 -0.044525 153 0 76
0.085645 -0.618769 -0.133305 0 255 0
0.048238 0.256557 0.205689 0 0 255
-0.324931 -0.131444 0.320192 127 0 127
0.162967 -0.668668 -0.226022 153 76 0
0.458454 0.646537 0.320192 127 0 127
0.517313 -0.616699 -0.108209 0 255 0
-0.209059 0.747221 0.134955 76 0 153
-0.105969 -0.616699 -0.230943 0 255 0
-0.459364 -0.401730 -0.313232 76 0 153
0.526199 -0.668668 0.223413 153 76 0
0.051315 0.211996 0.287071 127 0 127
-0.475928 0.714100 -0.246625 76 0 153
-0.460119 -0.465456 -0.307022 76 0 153
0.182110 0.555571 0.320192 127 0 127
-0.604191 0.442919 -0.333932 153 0 76
-0.289134 0.589623 -0.313232 76 0 153
-0.491267 0.187162 -0.034127 127 127 0
0.629441 -0.588170 -0.079588 76 153 0
-0.439065 0.747221 -0.129099 76 0 153
0.414417 0.747221 0.259469 76 0 153
-0.579446 -0.142439 -0.216159 153 0 76
-0.231573 -0.701788 0.088457 153 76 0
-0.502756 -0.572693 0.287071 127 0 127
-0.579446 0.404657 -0.009965 153 0 76
0.402148 -0.701788 -0.014179 153 76 0
0.629441 0.019298 -0.196694 76 153 0
-0.038190 -0.014765 0.320192 127 0 127
0.587691 0.077392 0.287071 127 0 127
0.529449 -0.616699 0.030350 0 255 0
-0.022217 -0.471059 -0.313232 76 0 153
-0.579446 0.680277 -0.106609 153 0 76
-0.579446 -0.142211 0.283095 153 0 76
-0.396605 0.111983 0.287071 127 0 127
-0.110959 0.666937 -0.307022 76 0 153
0.331797 -0.418501 0.287071 127 0 127
0.189019 0.715658 0.287071 76 0 153
-0.579446 0.708841 -0.200514 204 51 127
0.429127 0.674482 0.287071 127 0 127
0.629441 -0.255514 -0.160117 76 153 0
-0.563972 0.063115 -0.307022 153 0 76
-0.278198 0.187162 -0.218514 127 127 0
0.534770 0.187162 0.219491 127 127 0
-0.006434 0.257196 -0.123658 0 0 255
-0.612566 -0.089664 -0.133605 153 0 76
-0.579446 -0.341409 0.188033 153 0 76
-0.171710 -0.131862 0.320192 127 0 127
0.204134 0.212975 0.287071 127 0 127
0.009461 0.747221 -0.274219 76 0 153
0.512425 -0.618769 0.221889 0 255 0
-0.246192 -0.668668 -0.099760 153 76 0
0.051095 -0.072019 0.320192 127 0 127
0.596321 0.387987 0.182509 76 153 0
0.318421 0.731340 -0.313232 76 0 153
-0.001589 0.335315 -0.313232 76 0 153
-0.441586 0.259382 -0.182479 0 0 255
0.629441 0.066313 0.140886 76 153 0
0.311428 0.051528 -0.313232 76 0 153
0.480046 0.437267 -0.307022 76 0 153
0.629441 0.375995 -0.152754 76 153 0
-0.311442 0.747221 -0.270541 76 0 153
0.161661 0.386475 0.320192 127 0 127
0.031064 -0.701788 0.060119 153 76 0
0.202091 -0.381796 -0.313232 76 0 153
-0.612566 0.459681 0.131553 153 0 76
0.418001 -0.367353 0.320192 127 0 127
-0.034024 -0.616699 0.178823 0 255 0
-0.427640 0.011106 0.287071 127 0 127
0.259737 0.489034 -0.313232 76 0 153
0.596321 0.720217 0.195417 76 0 153
0.277923 0.419692 0.287071 127 0 127
-0.086610 0.247469 -0.233365 0 0 255
-0.456386 -0.701788 -0.091917 153 76 0
-0.579446 0.054034 0.054701 153 0 76
-0.612566 -0.483059 0.199974 153 0 76
-0.497658 -0.269533 0.320192 127 0 127
-0.110638 0.747221 0.190179 76 0 153
-0.220618 -0.555277 -0.242769 255 0 0
0.366170 -0.550329 0.241336 255 0 0
0.556626 -0.595274 0.287071 127 0 127
0.596321 -0.246903 -0.039876 76 153 0
-0.049427 -0.701788 0.190518 153 76 0
-0.612566 -0.088824 -0.207707 153 0 76
-0.333067 -0.701788 0.189567 153 76 0
-0.102558 -0.224202 0.287071 127 0 127
-0.529562 -0.523050 -0.313232 76 0 153
0.511040 -0.701788 0.133694 153 76 0
-0.070009 -0.668668 0.007989 153 76 0
-0.562886 -0.609791 0.236829 153 0 76
0.084864 0.491726 0.320192 127 0 127
0.138420 0.187162 0.046209 127 127 0
-0.338932 -0.408539 -0.167734 255 0 0
0.629441 0.551941 0.240861 76 153 0
-0.612566 0.556987 0.276920 127 0 127
-0.110230 -0.701788 0.075658 153 76 0
0.596321 -0.322580 -0.021642 76 153 0
0.274280 -0.668668 0.042074 153 76 0
0.326402 -0.064696 0.287071 127 0 127
0.629441 0.314018 -0.250367 76 153 0
0.210323 0.189232 0.169782 127 127 0
0.605121 0.209176 -0.313232 76 0 153
0.333283 0.747221 -0.264010 76 0 153
0.295586 0.135853 -0.307022 76 0 153
-0.612566 0.296295 0.212184 153 0 76
0.256712 0.653959 0.287071 127 0 127
0.596321 -0.412456 0.091097 76 153 0
-0.481105 -0.616699 0.156432 0 255 0
0.198101 -0.445864 -0.186454 255 0 0
0.208212 -0.523603 0.320192 127 0 127
-0.298105 -0.653487 -0.282980 153 76 0
0.054780 -0.518231 -0.307022 76 0 153
0.596321 0.466784 -0.166211 76 153 0
0.586862 -0.574023 0.234913 76 153 0
-0.144039 -0.452522 -0.187002 255 0 0
0.596321 0.134272 -0.290472 76 153 0
-0.270669 -0.618769 -0.047016 0 255 0
0.144815 0.747221 0.105600 76 0 153
-0.558746 -0.585957 0.048059 153 0 76
0.629441 -0.008952 0.036225 76 153 0
-0.224928 -0.526672 -0.307022 76 0 153
0.629441 0.719833 -0.110498 76 153 0
0.244407 -0.125018 0.287071 127 0 127
0.457961 -0.353408 0.287071 127 0 127
-0.292685 -0.701788 -0.102680 153 76 0
-0.498995 -0.210487 -0.313232 76 0 153
0.582730 -0.701788 -0.036748 76 153 0
0.130099 -0.389745 0.287071 127 0 127
0.596321 0.576903 -0.269020 76 153 0
0.629441 0.236552 -0.163320 76 153 0
0.393078 -0.668668 0.091441 153 76 0
-0.071131 0.189232 0.211055 127 127 0
-0.579446 0.082773 0.034930 153 0 76
-0.002937 0.589394 0.287071 127 0 127
-0.054941 0.652727 0.320192 127 0 127
0.011870 0.747221 -0.127643 76 0 153
-0.579446 -0.580839 -0.231013 153 0 76
0.578780 0.743080 0.292157 76 0 153
-0.011892 0.156859 -0.307022 76 0 153
-0.238386 0.336502 0.320192 127 0 127
0.028905 0.253766 0.287071 127 0 127
0.462595 -0.701788 -0.155401 153 76 0
0.124743 -0.701788 0.245792 153 76 0
-0.111365 -0.616699 0.062126 0 255 0
-0.283362 -0.668668 -0.067295 153 76 0
0.629441 0.745700 -0.300382 76 153 0
-0.612566 -0.127026 -0.247778 153 0 76
-0.579446 -0.242166 -0.039388 153 0 76
0.582552 0.145095 0.320192 127 0 127
-0.168651 0.747221 -0.138738 76 0 153
0.507144 0.714100 -0.143072 76 0 153
-0.612566 -0.453534 0.249852 153 0 76
0.629441 0.025352 0.217872 76 153 0
-0.502921 0.433353 0.320192 127 0 127
-0.526349 0.066004 -0.313232 76 0 153
-0.302764 0.187162 0.208369 127 127 0
-0.579446 -0.095792 0.149229 153 0 76
-0.400845 -0.701788 0.210136 153 76 0
0.389618 -0.402160 0.156884 255 0 0
0.596321 0.163323 -0.134880 76 153 0
-0.152999 -0.616699 0.028966 0 255 0
-0.612566 0.420345 0.205209 153 0 76
-0.030139 0.244128 -0.307022 76 0 153
-0.196346 -0.165186 0.287071 127 0 127
-0.060366 -0.383068 0.320192 127 0 127
-0.579446 -0.641253 -0.054916 153 0 76
0.596321 0.505174 -0.290081 76 153 0
-0.579446 -0.088819 -0.093996 153 0 76
-0.612566 0.245859 -0.317337 153 0 76
0.016746 -0.505369 0.320192 127 0 127
-0.579446 -0.287956 0.204504 153 0 76
0.379390 0.561718 -0.313232 76 0 153
0.023746 0.246729 -0.232130 0 0 255
0.391514 0.714100 0.075249 76 0 153
-0.022372 0.714100 -0.269846 76 0 153
0.371283 -0.049988 0.320192 127 0 127
-0.520982 -0.664829 0.320192 127 0 127
-0.193479 -0.149738 -0.313232 76 0 153
0.596321 -0.089599 0.032402 76 153 0
-0.468692 -0.668668 -0.213093 153 76 0
-0.276592 0.747221 -0.064570 76 0 153
0.172242 -0.592455 0.320192 127 0 127
-0.316395 0.311692 -0.282111 0 0 255
0.629441 -0.057027 -0.201665 76 153 0
-0.126964 -0.616699 0.156181 0 255 0
0.442845 -0.424810 0.174833 255 0 0
-0.147515 0.258928 -0.053073 0 0 255
-0.612566 0.232486 0.190724 153 0 76
0.596321 -0.386760 0.066218 76 153 0
-0.508615 0.181905 0.320192 127 0 127
0.629441 0.484055 -0.218235 76 153 0
-0.062314 0.307457 -0.307022 76 0 153
0.322659 -0.619906 0.320192 127 0 127
0.567200 -0.590040 0.204809 76 153 0
-0.077803 -0.288247 0.287071 127 0 127
0.102705 0.536779 0.287071 127 0 127
-0.270801 -0.247123 0.287071 127 0 127
0.596321 -0.116024 0.246277 76 153 0
0.616250 -0.095699 0.287071 76 153 0
0.038313 -0.647101 -0.313232 76 0 153
-0.053124 0.239662 0.287071 127 0 127
0.149380 -0.515650 -0.089737 255 0 0
0.240952 -0.628998 -0.249110 76 0 153
-0.516814 -0.157520 0.320192 127 0 127
-0.339718 -0.685288 -0.313232 76 0 153
-0.612566 -0.374461 0.253349 153 0 76
0.629441 0.421898 -0.268916 76 153 0
0.539126 -0.668668 0.100849 153 76 0
-0.579446 0.193219 -0.207374 153 0 76
0.596321 0.148131 0.136936 76 153 0
0.503410 0.076778 0.287071 127 0 127
-0.296175 0.724485 0.320192 127 0 127
0.625023 -0.661815 0.304543 127 0 127
0.629441 -0.048883 0.028258 76 153 0
0.305792 0.441746 0.320192 127 0 127
0.451734 -0.668668 -0.295760 153 76 0
0.596321 0.620514 0.200596 76 153 0
-0.434705 -0.668668 0.211360 153 76 0
-0.505921 0.747221 0.086974 76 0 153
-0.173907 0.521439 0.320192 127 0 127
0.185657 0.504088 -0.307022 76 0 153
0.108352 0.154968 0.320192 127 0 127
0.404982 0.714100 0.003712 76 0 153
0.240407 0.156002 0.287071 127 0 127
0.125482 0.081711 0.320192 127 0 127
-0.384109 -0.419741 0.287071 127 0 127
-0.482642 -0.701788 -0.058464 153 76 0
0.552107 -0.598069 -0.112417 0 255 0
0.159171 0.682449 0.320192 127 0 127
0.629441 -0.613707 -0.198561 76 153 0
-0.105581 0.166709 0.320192 127 0 127
-0.612566 -0.563235 0.054431 153 0 76
0.031495 -0.330522 -0.307022 76 0 153
0.596321 -0.540712 -0.186694 76 153 0
-0.432395 0.268129 0.320192 127 0 127
0.331639 -0.305352 0.320192 127 0 127
-0.008880 -0.668668 -0.055314 153 76 0
0.518572 -0.668668 0.037891 153 76 0
-0.174053 -0.191219 -0.307022 76 0 153
-0.052259 -0.433990 0.320192 127 0 127
-0.195704 0.187162 0.002373 127 127 0
0.265949 -0.151321 0.287071 127 0 127
-0.259636 0.187255 0.287071 127 0 127
0.614228 0.313165 -0.333932 76 153 0
-0.194889 0.189232 -0.051334 127 127 0
0.332853 0.463773 0.287071 127 0 127
-0.318194 0.151490 0.287071 127 0 127
-0.579446 0.638779 0.242436 153 0 76
-0.390112 -0.668668 -0.031777 153 76 0
-0.221257 -0.309930 0.320192 127 0 127
0.596321 0.335302 -0.018734 76 153 0
-0.408141 -0.701788 -0.271774 153 76 0
0.629441 -0.250611 -0.295994 76 153 0
0.344834 0.189232 -0.190613 127 127 0
0.596321 0.166100 0.060719 76 153 0
-0.552968 0.070598 0.320192 127 0 127
-0.180399 0.714100 0.103737 76 0 153
-0.506617 -0.279090 0.287071 127 0 127
-0.263629 -0.587113 0.320192 127 0 127
0.307714 0.714100 -0.273501 76 0 153
-0.211413 -0.411395 -0.313232 76 0 153
-0.455665 0.714100 0.223991 76 0 153
-0.260489 -0.557810 -0.307022 76 0 153
0.453351 -0.701788 0.090573 153 76 0
-0.332072 -0.701788 0.081254 153 76 0
0.101513 0.284351 0.320192 127 0 127
0.596321 0.182896 -0.191128 76 153 0
0.596321 -0.348874 -0.088124 76 153 0
0.401179 0.714100 -0.071079 76 0 153
0.373934 -0.520833 -0.307022 76 0 153
-0.379263 0.714100 -0.207731 76 0 153
0.013159 -0.657239 0.253153 153 76 0
0.226558 -0.668668 -0.134239 153 76 0
-0.265721 0.250451 -0.226524 0 0 255
0.596321 -0.024963 -0.076101 76 153 0
-0.579446 -0.567513 -0.295902 153 0 76
0.558136 0.238311 -0.307022 76 0 153
0.169279 -0.701788 -0.141566 153 76 0
-0.048070 0.747221 0.230249 76 0 153
0.554978 -0.668668 -0.180756 153 76 0
0.430631 -0.629229 -0.313232 76 0 153
-0.191890 0.016493 -0.313232 76 0 153
0.491711 -0.701788 -0.136412 153 76 0
-0.504492 -0.618769 -0.227664 0 255 0
0.084001 0.479973 0.287071 127 0 127
-0.612566 -0.527945 0.094896 153 0 76
-0.056899 0.714100 -0.069852 76 0 153
-0.539084 -0.393379 -0.307022 76 0 153
0.629441 -0.100293 -0.192589 76 153 0
-0.612566 -0.002701 0.066690 153 0 76
-0.579446 0.509475 0.110097 153 0 76
0.345014 -0.668668 -0.016788 153 76 0
-0.579446 -0.591066 0.147562 153 0 76
-0.395295 0.256789 -0.116940 0 0 255
-0.612566 0.508195 -0.112259 153 0 76
-0.011112 -0.668668 0.063378 153 76 0
0.157051 -0.171395 0.287071 127 0 127
-0.575322 -0.164408 -0.313232 76 0 153
-0.297007 -0.668668 0.196366 153 76 0
0.596321 -0.029453 -0.007870 76 153 0
0.142834 0.508022 -0.313232 76 0 153
0.084441 0.747221 -0.183656 76 0 153
0.229802 0.390784 0.287071 127 0 127
0.316140 -0.668668 -0.250722 76 0 153
0.596321 0.244412 0.142017 76 153 0
-0.579446 0.149721 -0.063013 153 0 76
0.003013 -0.518409 0.036211 255 0 0
-0.246329 -0.616699 0.125601 0 255 0
0.345128 0.270771 0.287071 127 0 127
-0.470966 0.714100 -0.154993 76 0 153
-0.612566 0.461432 0.048198 153 0 76
-0.540524 0.283297 0.287071 127 0 127
-0.612566 -0.054462 -0.271793 153 0 76
-0.479113 -0.155973 0.287071 127 0 127
0.207289 -0.668668 -0.058421 153 76 0
-0.087908 0.207862 -0.243390 127 127 0
0.374712 -0.595999 0.249368 0 255 0
0.625023 -0.026133 0.301338 127 0 127
-0.579446 -0.663448 0.067629 153 76 0
-0.581546 -0.580982 0.287071 127 0 127
0.629441 0.397332 0.098216 76 153 0
0.053277 -0.361612 0.287071 127 0 127
0.290140 -0.068529 0.287071 127 0 127
-0.015636 -0.511940 -0.217245 255 0 0
0.629441 -0.201236 -0.037821 76 153 0
-0.298277 -0.597627 -0.252615 0 255 0
-0.228746 0.187162 -0.151797 127 127 0
-0.508274 -0.618769 0.230066 0 255 0
-0.434145 -0.701788 0.088416 153 76 0
-0.091366 0.406896 0.320192 127 0 127
-0.612566 0.222272 0.061313 153 0 76
0.369572 -0.701788 -0.114061 153 76 0
0.324154 0.189232 0.217822 127 127 0
-0.579446 0.361502 0.050014 153 0 76
-0.478257 0.006905 -0.307022 76 0 153
0.281538 0.747221 -0.250929 76 0 153
0.122273 -0.221240 0.287071 127 0 127
0.197937 -0.407134 -0.133898 255 0 0
-0.579446 0.392024 0.285152 127 0 127
0.397775 0.747221 -0.093133 76 0 153
-0.113375 0.714100 -0.114637 76 0 153
-0.050600 0.113915 -0.307022 76 0 153
0.571825 -0.099076 -0.307022 76 0 153
0.269190 -0.701788 -0.151582 153 76 0
-0.362977 0.747221 0.038059 76 0 153
0.583458 0.456513 0.287071 127 0 127
-0.254767 -0.103048 0.320192 127 0 127
-0.051599 -0.668668 -0.167060 153 76 0
0.629441 0.012899 -0.260558 76 153 0
-0.496534 0.189525 -0.307022 76 0 153
-0.280622 -0.618769 -0.142807 0 255 0
-0.431995 0.086499 0.320192 127 0 127
-0.246848 -0.164734 0.320192 127 0 127
-0.039372 -0.473759 0.320192 127 0 127
0.226675 0.504658 0.287071 127 0 127
0.386385 -0.045723 -0.313232 76 0 153
0.462090 0.714949 -0.307022 76 0 153
-0.456459 -0.401049 0.320192 127 0 127
0.167580 -0.668668 0.031203 153 76 0
0.629441 0.240678 -0.009307 76 153 0
0.186090 -0.413833 0.287071 127 0 127
0.198428 -0.558661 0.287071 127 0 127
-0.178283 0.210074 0.320192 127 0 127
0.596321 -0.281782 0.191240 76 153 0
0.250348 -0.476495 -0.199749 255 0 0
0.240816 0.714100 -0.162300 76 0 153
-0.005824 -0.637753 -0.313232 76 0 153
-0.190989 0.420378 0.320192 127 0 127
-0.456739 -0.701788 0.050701 153 76 0
-0.577266 -0.183983 0.287071 153 0 76
0.629441 -0.078896 0.145734 76 153 0
0.552264 0.747221 -0.276490 76 0 153
-0.369558 -0.347481 0.287071 127 0 127
0.306831 0.533923 -0.307022 76 0 153
0.013069 -0.365478 0.320192 127 0 127
0.353125 0.714100 0.232519 76 0 153
0.415611 0.467897 -0.313232 76 0 153
-0.525721 -0.100159 0.287071 127 0 127
0.489816 0.045918 0.320192 127 0 127
-0.193194 -0.697609 -0.313232 76 0 153
0.046445 0.187162 0.231825 127 127 0
-0.212467 -0.668668 0.227523 153 76 0
0.505405 0.207862 0.262483 127 127 0
0.450263 0.189232 -0.147991 127 127 0
0.596321 -0.403025 -0.234753 76 153 0
0.333356 0.714100 0.178847 76 0 153
-0.508394 0.187162 0.025146 127 127 0
-0.568352 0.747221 0.109905 153 0 76
-0.308892 -0.668668 0.233682 153 76 0
-0.579446 -0.042884 0.255508 153 0 76
0.528441 0.747221 0.158567 76 0 153
0.207158 0.747221 -0.256559 76 0 153
-0.463114 0.655196 0.320192 127 0 127
0.218739 -0.668668 -0.020394 153 76 0
0.261205 -0.402105 0.287071 127 0 127
0.596321 -0.083807 -0.102574 76 153 0
0.629441 -0.573997 0.263034 76 153 0
-0.612566 -0.565529 -0.162609 153 0 76
0.160268 0.614760 -0.307022 76 0 153
-0.579446 0.268732 0.255130 153 0 76
0.509513 0.693669 0.287071 127 0 127
0.149046 -0.254323 0.287071 127 0 127
0.244280 -0.701788 0.097570 153 76 0
-0.230444 0.714100 -0.182972 76 0 153
-0.426129 -0.679602 -0.313232 76 0 153
-0.357997 0.433762 0.320192 127 0 127
-0.612566 -0.230371 0.129195 153 0 76
0.378507 -0.668668 -0.200397 153 76 0
0.022946 -0.616699 -0.014367 0 255 0
0.629441 0.311745 -0.060936 76 153 0
-0.612566 -0.047967 0.235915 153 0 76
-0.612566 -0.186287 -0.019870 153 0 76
0.494712 0.189232 0.192646 127 127 0
-0.530951 -0.701788 0.254431 153 76 0
-0.115483 -0.668668 0.037343 153 76 0
0.629441 0.139658 -0.011260 76 153 0
-0.307718 0.115292 -0.307022 76 0 153
-0.612566 -0.668526 -0.103106 153 0 76
-0.337789 -0.516874 -0.032544 255 0 0
0.629441 -0.668834 0.055104 76 153 0
-0.501229 0.747221 -0.045387 76 0 153
0.629441 0.159215 0.204354 76 153 0
0.316296 -0.618769 -0.161242 0 255 0
-0.579446 -0.190886 0.082190 153 0 76
-0.307496 -0.637235 -0.255320 76 0 153
0.345920 -0.618769 -0.045933 0 255 0
-0.204943 0.747221 -0.089115 76 0 153
-0.579446 -0.261609 -0.269514 153 0 76
0.596321 0.144677 -0.255874 76 153 0
0.225887 0.272998 -0.313232 76 0 153
0.621111 0.725007 0.287071 76 153 0
-0.372343 -0.258328 0.287071 127 0 127
-0.417614 -0.582843 0.320192 127 0 127
0.629441 -0.432651 -0.275677 76 153 0
-0.579446 -0.297367 -0.110499 153 0 76
0.596321 -0.521922 0.193931 76 153 0
-0.558746 0.191192 -0.076155 127 127 0
0.397716 0.747221 0.042881 76 0 153
0.629441 -0.138675 -0.007802 76 153 0
-0.407681 -0.618769 -0.211247 0 255 0
-0.579446 -0.559691 -0.073642 153 0 76
-0.575830 0.249110 0.221194 0 127 127
-0.057833 0.395512 0.320192 127 0 127
-0.544479 -0.668668 -0.250034 153 76 0
-0.229579 0.225700 0.320192 127 0 127
-0.612566 0.020974 0.092154 153 0 76
0.235124 0.714100 -0.248940 76 0 153
-0.385534 -0.207295 -0.307022 76 0 153
0.444031 -0.219889 0.320192 127 0 127
0.194128 -0.701788 0.052885 153 76 0
-0.579446 -0.348719 -0.294117 153 0 76
0.443660 0.507889 0.320192 127 0 127
0.383424 0.360488 0.287071 127 0 127
-0.357412 -0.616699 -0.030124 0 255 0
-0.579446 -0.106288 -0.279401 153 0 76
0.625023 -0.470222 0.311384 127 0 127
-0.012075 0.270720 0.320192 127 0 127
-0.229066 0.189232 0.241918 127 127 0
-0.039222 -0.007309 0.287071 127 0 127
0.629441 -0.391033 -0.259392 76 153 0
-0.162144 0.187162 -0.057837 127 127 0
-0.407180 -0.035007 0.287071 127 0 127
0.441312 -0.409857 -0.307022 76 0 153
0.067722 0.714100 0.041821 76 0 153
-0.142440 0.565984 -0.313232 76 0 153
-0.390640 0.025349 0.287071 127 0 127
-0.422563 -0.616699 -0.029924 0 255 0
-0.331732 0.209932 -0.244718 127 127 0
0.448922 0.747221 -0.246175 76 0 153
0.299698 -0.701788 -0.164752 153 76 0
-0.532823 -0.668668 0.056660 153 76 0
0.059723 0.719701 0.320192 127 0 127
0.567010 0.714100 0.175803 76 0 153
0.444380 0.011565 0.287071 127 0 127
0.327801 -0.641675 0.259363 153 76 0
0.531653 0.075970 -0.313232 76 0 153
-0.094475 -0.112383 -0.307022 76 0 153
-0.145556 -0.488831 0.320192 127 0 127
-0.612566 0.356365 0.194505 153 0 76
-0.579716 0.421980 0.320192 127 0 127
-0.407463 -0.281078 -0.307022 76 0 153
0.629441 -0.595446 0.006631 76 153 0
-0.405055 0.605182 0.320192 127 0 127
0.304658 -0.226884 0.287071 127 0 127
0.380110 -0.365317 0.287071 127 0 127
0.629441 0.137464 0.177117 76 153 0
0.629441 0.241687 0.181363 76 153 0
-0.540116 -0.701788 -0.164152 153 76 0
-0.494533 0.254841 -0.307022 76 0 153
-0.168758 0.612004 0.320192 127 0 127
-0.579446 0.284967 -0.187613 153 0 76
0.054400 -0.291586 -0.307022 76 0 153
-0.579446 0.141123 0.248916 153 0 76
-0.579446 -0.183822 -0.117578 153 0 76
0.629441 0.373876 0.065297 76 153 0
0.598616 -0.064469 0.287071 76 153 0
-0.579446 -0.409839 -0.038372 153 0 76
-0.579446 0.256673 -0.083047 153 0 76
0.596321 0.233851 0.099096 76 153 0
-0.612566 -0.269425 0.226937 153 0 76
0.364408 0.445747 -0.307022 76 0 153
-0.419389 0.189232 0.180407 127 127 0
0.452254 -0.616699 -0.138236 0 255 0
0.610884 0.634448 -0.333932 76 153 0
0.361926 -0.605102 -0.313232 76 0 153
-0.027625 -0.675002 0.287071 153 76 0
-0.612566 -0.165138 -0.252009 153 0 76
-0.550621 -0.701788 0.006568 153 76 0
-0.581022 0.496916 -0.313232 153 0 76
-0.582152 0.744402 -0.313232 153 0 76
-0.250605 0.491877 0.287071 127 0 127
-0.493522 -0.569591 0.320192 127 0 127
0.225686 0.099566 0.320192 127 0 127
-0.086540 0.747221 -0.095234 76 0 153
-0.537895 -0.498167 0.320192 127 0 127
0.596321 0.312462 0.111995 76 153 0
-0.579446 -0.399071 0.174011 153 0 76
0.480094 -0.492355 -0.307022 76 0 153
-0.606754 -0.339861 0.320192 127 0 127
-0.612566 0.543374 -0.044928 153 0 76
0.612881 0.470882 -0.310229 76 153 0
-0.353176 -0.308905 -0.307022 76 0 153
0.524449 -0.701788 0.183573 153 76 0
-0.062067 -0.616699 -0.167987 0 255 0
0.341910 0.538228 0.287071 127 0 127
-0.579446 0.568994 -0.018218 153 0 76
0.245332 -0.417053 -0.172338 255 0 0
0.291016 -0.610944 -0.234130 0 255 0
-0.448710 -0.665191 0.320192 127 0 127
-0.291027 0.714100 0.066159 76 0 153
0.125738 -0.027994 0.320192 127 0 127
0.629441 0.645479 0.183497 76 153 0
-0.508348 -0.701788 -0.125870 153 76 0
-0.509940 -0.296444 -0.313232 76 0 153
0.459717 -0.668668 0.042207 153 76 0
-0.121764 -0.701788 0.258755 153 76 0
-0.231321 0.459282 0.320192 127 0 127
0.603700 0.747221 0.053646 76 153 0
0.453938 0.714100 -0.177335 76 0 153
0.598009 0.747221 -0.020584 76 0 153
0.121210 -0.255136 0.320192 127 0 127
0.629441 0.008232 -0.019449 76 153 0
0.426957 0.176742 0.320192 127 0 127
-0.086649 -0.654958 -0.255320 76 0 153
-0.083445 -0.668668 0.251436 153 76 0
0.353316 0.209335 -0.245662 127 127 0
-0.368790 -0.161751 0.320192 127 0 127
0.470384 0.507647 0.287071 127 0 127
0.629441 -0.463640 0.106613 76 153 0
0.173904 0.304757 -0.281268 0 0 255
0.400429 0.506898 0.287071 127 0 127
0.303450 0.156994 0.320192 127 0 127
-0.612566 0.087218 -0.323610 153 0 76
0.621923 -0.323818 0.287071 76 153 0
-0.019300 -0.701788 -0.202877 153 76 0
0.023015 -0.701788 0.009114 153 76 0
0.598018 0.747221 0.163792 76 153 0
-0.579446 -0.627655 -0.212315 153 0 76
0.409715 -0.347678 -0.307022 76 0 153
0.482574 0.668507 0.320192 127 0 127
-0.416927 -0.236888 0.320192 127 0 127
-0.612566 0.564817 0.014142 153 0 76
0.370156 -0.535637 -0.058248 255 0 0
0.388320 0.209932 0.258403 127 127 0
0.596321 0.686694 0.256847 76 153 0
-0.486408 0.257364 0.259957 0 0 255
-0.466492 0.386538 0.320192 127 0 127
0.267645 0.193293 0.287071 127 0 127
-0.102792 -0.446751 0.320192 127 0 127
-0.269634 -0.668668 -0.234873 76 0 153
0.374214 0.053184 0.320192 127 0 127
-0.558746 -0.612613 0.101713 153 0 76
0.629441 0.701832 0.153115 76 153 0
-0.579446 -0.504813 -0.075752 153 0 76
0.629441 0.538216 -0.095821 76 153 0
-0.579446 0.056398 0.194985 153 0 76
-0.495393 0.076200 -0.313232 76 0 153
-0.025245 0.459594 0.320192 127 0 127
-0.612566 0.578002 -0.298806 153 0 76
0.510549 0.260608 0.287071 127 0 127
0.447726 0.189232 -0.188551 127 127 0
-0.010654 0.075815 0.287071 127 0 127
-0.579446 0.628503 -0.152907 204 51 127
0.421521 0.714100 0.197808 76 0 153
0.436640 0.520855 -0.307022 76 0 153
-0.320818 -0.616699 -0.202027 0 255 0
0.347138 -0.416459 0.172964 255 0 0
-0.612566 0.326058 -0.159643 153 0 76
0.379491 -0.701788 -0.232774 153 76 0
-0.073290 0.187162 0.139237 127 127 0
-0.326776 -0.184482 -0.307022 76 0 153
-0.442747 0.529404 -0.307022 76 0 153
0.038163 0.726534 -0.307022 76 0 153
0.005433 -0.066925 0.287071 127 0 127
0.596321 -0.004297 0.175568 76 153 0
0.596321 0.185245 -0.251150 76 153 0
-0.292326 0.128167 0.320192 127 0 127
-0.326625 -0.668668 -0.266405 153 76 0
0.610779 -0.625778 -0.307022 76 153 0
-0.195981 0.055242 0.287071 127 0 127
0.629441 -0.665215 -0.021684 76 153 0
-0.336348 0.685775 0.287071 127 0 127
0.004054 -0.701788 -0.280071 153 76 0
-0.579446 0.244724 0.151302 153 0 76
0.629441 0.162540 -0.164737 76 153 0
0.513499 0.306490 0.320192 127 0 127
0.596321 -0.578428 0.119521 76 153 0
0.546644 0.194923 -0.082512 127 127 0
-0.612566 -0.644692 -0.039382 153 0 76
0.596321 0.436549 0.260007 76 153 0
0.629441 0.593711 -0.230427 76 153 0
-0.579446 0.380691 0.188101 153 0 76
-0.612566 -0.018238 -0.224684 153 0 76
-0.563377 0.243025 -0.251930 153 0 76
-0.041023 -0.164390 0.287071 127 0 127
-0.612566 -0.637588 -0.296892 153 0 76
-0.399959 -0.616699 0.228667 0 255 0
-0.440044 -0.469310 0.287071 127 0 127
-0.522353 -0.618769 -0.006154 0 255 0
0.559934 -0.668452 -0.282980 153 76 0
-0.291490 0.655916 0.320192 127 0 127
-0.441674 0.706516 -0.307022 76 0 153
-0.504455 -0.448100 0.365677 0 127 127
-0.158607 -0.458655 0.287071 127 0 127
0.629441 0.448538 0.216380 76 153 0
0.596321 0.027096 -0.118640 76 153 0
-0.559764 0.333782 -0.307022 76 0 153
0.368586 0.722124 0.287071 127 0 127
0.629441 -0.050104 -0.102996 76 153 0
-0.579446 -0.009709 0.106758 153 0 76
0.205875 -0.668668 0.182334 153 76 0
-0.351030 0.103118 0.320192 127 0 127
-0.524472 -0.618769 -0.119183 0 255 0
-0.288639 -0.550232 -0.239443 255 0 0
-0.297280 0.254231 -0.146296 0 0 255
-0.395754 0.159076 -0.313232 76 0 153
0.214319 0.184001 -0.313232 76 0 153
-0.358125 0.057367 -0.313232 76 0 153
-0.579446 -0.287388 -0.303581 76 0 153
0.528613 -0.042528 -0.307022 76 0 153
-0.015706 0.327108 0.320192 127 0 127
0.495823 -0.193818 -0.313232 76 0 153
-0.386057 0.714100 0.146807 76 0 153
-0.474783 0.747221 0.099785 76 0 153
0.411748 0.699830 0.320192 127 0 127
0.268497 -0.668668 -0.059844 153 76 0
-0.208253 -0.598069 0.255712 0 255 0
-0.579446 0.326572 -0.101415 153 0 76
-0.612566 0.382890 -0.287155 153 0 76
0.045072 0.714100 -0.112024 76 0 153
0.014490 0.662392 -0.313232 76 0 153
0.062270 -0.140393 0.287071 127 0 127
-0.612566 -0.227842 0.278439 153 0 76
0.629441 0.461681 0.258952 76 153 0
-0.475284 -0.701788 -0.186056 153 76 0
0.210226 0.747221 -0.049966 76 0 153
-0.492709 0.291889 0.287071 127 0 127
0.543018 -0.618769 -0.021930 0 255 0
-0.122133 -0.668668 -0.001267 153 76 0
0.009604 -0.112823 0.320192 127 0 127
-0.253627 0.101067 0.287071 127 0 127
-0.427312 -0.618769 0.185053 0 255 0
0.214778 -0.350011 0.287071 127 0 127
-0.360343 -0.701788 -0.179717 153 76 0
-0.579446 0.039474 -0.272602 153 0 76
0.513729 -0.626327 0.257642 153 76 0
-0.102188 0.064686 -0.307022 76 0 153
0.228097 0.456010 0.287071 127 0 127
-0.468126 -0.701788 0.149941 153 76 0
0.104746 -0.690589 0.287071 127 0 127
0.596321 0.514016 -0.116187 76 153 0
-0.038352 -0.693129 0.320192 127 0 127
0.027039 0.747221 0.165506 76 0 153
0.175431 0.714100 -0.090322 76 0 153
-0.037742 -0.257093 0.287071 127 0 127
-0.286910 0.593216 0.287071 127 0 127
-0.178475 0.227607 -0.313232 76 0 153
0.513930 0.187162 0.145196 127 127 0
0.385514 -0.677254 0.287071 153 76 0
0.306064 0.187162 0.059599 127 127 0
-0.612566 -0.465496 -0.302114 153 0 76
-0.612566 0.121129 0.017255 153 0 76
-0.175136 -0.504766 0.287071 127 0 127
0.086213 -0.632981 -0.313232 76 0 153
-0.326897 0.747221 0.170494 76 0 153
0.144873 -0.683841 0.320192 127 0 127
-0.190718 0.359232 0.320192 127 0 127
-0.012584 -0.598069 -0.251243 0 255 0
-0.191555 -0.007842 0.320192 127 0 127
-0.166619 0.305518 -0.282421 0 0 255
-0.390239 -0.489695 0.287071 127 0 127
-0.612566 0.065409 -0.050714 153 0 76
0.336048 0.271838 -0.313232 76 0 153
0.201710 0.541456 -0.307022 76 0 153
-0.534012 0.447205 0.287071 127 0 127
0.032436 0.145514 -0.307022 76 0 153
0.557180 0.289598 -0.313232 76 0 153
-0.415121 0.714100 -0.257059 76 0 153
0.629441 0.263658 -0.299162 76 153 0
-0.333581 -0.525885 0.043524 255 0 0
-0.428705 -0.033290 -0.307022 76 0 153
-0.612566 0.182280 0.127937 153 0 76
-0.001818 0.709522 -0.307022 76 0 153
-0.535084 0.255919 0.259576 0 0 255
0.053601 -0.616699 0.004140 0 255 0
-0.079335 0.714100 0.056118 76 0 153
-0.351783 -0.590435 0.320192 127 0 127
-0.012911 0.201685 0.287071 127 0 127
0.428831 -0.618769 -0.070196 0 255 0
-0.579446 0.534878 0.016742 153 0 76
0.114703 -0.465958 0.320192 127 0 127
-0.327429 0.747221 -0.239554 76 0 153
-0.602428 -0.584909 0.320192 127 0 127
-0.084881 0.712987 0.320192 127 0 127
-0.476357 0.439954 0.287071 127 0 127
-0.136816 -0.647685 0.259363 153 76 0
-0.612566 -0.087864 -0.032174 153 0 76
0.408532 -0.650252 0.320192 127 0 127
0.122157 0.747221 -0.058353 76 0 153
-0.576039 -0.047052 0.320192 127 0 127
0.065449 -0.701788 -0.305745 153 76 0
-0.289197 -0.375648 0.287071 127 0 127
-0.585719 0.525951 0.320192 127 0 127
0.596321 -0.152516 0.213876 76 153 0
0.596321 0.082762 0.030679 76 153 0
-0.157120 -0.511108 -0.313232 76 0 153
0.133466 0.189232 0.077955 127 127 0
-0.521010 -0.237218 0.287071 127 0 127
-0.612566 0.315761 0.248455 153 0 76
0.086068 0.054546 -0.313232 76 0 153
0.629441 -0.016865 0.103976 76 153 0
-0.079310 0.714100 -0.189585 76 0 153
0.215223 -0.688625 0.287071 153 76 0
-0.579446 -0.348736 0.242675 153 0 76
0.598541 0.354695 -0.333932 76 153 0
0.217468 0.354012 0.320192 127 0 127
-0.612566 -0.517747 0.029310 153 0 76
-0.332797 0.368333 -0.313232 76 0 153
0.596321 0.652853 0.054229 76 153 0
0.269771 0.077745 -0.313232 76 0 153
0.316409 -0.528466 -0.062115 255 0 0
0.327163 0.715523 0.320192 127 0 127
-0.075775 -0.235343 0.320192 127 0 127
-0.579446 0.363555 -0.155781 153 0 76
0.192864 0.253956 -0.182338 0 0 255
-0.258977 -0.618769 -0.166591 0 255 0
-0.501487 -0.618769 -0.059102 0 255 0
0.145825 -0.618769 0.014113 0 255 0
0.204483 -0.663540 0.253153 153 76 0
0.002309 0.187162 0.112125 127 127 0
0.297516 -0.562704 0.320192 127 0 127
-0.552829 0.699847 0.320192 127 0 127
-0.272301 0.038243 0.287071 127 0 127
-0.612566 -0.422517 0.061489 153 0 76
0.044420 -0.046003 -0.307022 76 0 153
0.129166 0.023900 0.320192 127 0 127
0.629441 0.179603 -0.101563 76 153 0
-0.000537 -0.618769 0.175808 0 255 0
0.142348 0.505836 0.320192 127 0 127
0.440521 0.316024 0.320192 127 0 127
-0.221535 -0.513668 0.211697 255 0 0
-0.000124 0.165315 0.287071 127 0 127
-0.553816 0.714100 -0.005445 76 0 153
-0.358223 -0.631883 -0.249110 76 0 153
-0.052620 -0.134959 0.320192 127 0 127
0.256999 0.083739 0.287071 127 0 127
-0.415156 0.635816 -0.307022 76 0 153
-0.293156 0.258805 0.064604 0 0 255
-0.256327 -0.471011 0.287071 127 0 127
0.263599 0.252830 -0.234080 0 0 255
-0.087726 0.189232 -0.202038 127 127 0
-0.141267 0.371641 0.287071 127 0 127
0.529122 -0.158839 -0.313232 76 0 153
-0.346917 -0.433446 -0.307022 76 0 153
0.153230 0.273727 0.320192 127 0 127
0.107735 0.714100 -0.077604 76 0 153
0.119130 0.747221 -0.283966 76 0 153
0.055044 -0.487073 -0.203703 255 0 0
-0.133837 0.714100 0.263271 76 0 153
0.012482 -0.701788 -0.075498 153 76 0
0.596321 -0.199484 0.227812 76 153 0
0.234022 -0.232176 0.320192 127 0 127
0.553227 -0.644500 0.280813 153 76 0
-0.013866 0.189232 -0.001227 127 127 0
0.051527 0.747221 -0.041563 76 0 153
-0.579446 0.145224 -0.125947 153 0 76
0.629441 0.029855 0.047804 76 153 0
0.045967 0.087422 0.320192 127 0 127
-0.289305 0.209932 0.262364 127 127 0
-0.277476 0.747221 0.116056 76 0 153
0.204153 -0.701788 -0.090819 153 76 0
0.629441 -0.144882 -0.085194 76 153 0
-0.018903 0.714100 -0.183065 76 0 153
-0.582284 0.306590 -0.333932 153 0 76
0.220084 -0.701788 0.229889 153 76 0
0.402633 0.747221 -0.039861 76 0 153
-0.403899 -0.618769 -0.128237 0 255 0
-0.554458 0.683779 -0.307022 76 0 153
0.103561 0.747221 0.218257 76 0 153
-0.612566 -0.676409 -0.316780 153 0 76
-0.579446 -0.475380 0.043751 153 0 76
0.297455 0.187162 -0.093705 127 127 0
0.491393 0.714100 -0.028679 76 0 153
0.629441 0.283072 -0.227451 76 153 0
0.629441 0.200194 0.043144 76 153 0
0.629441 0.604688 0.226955 76 153 0
0.360891 -0.701788 0.051682 153 76 0
0.578094 0.579783 0.320192 127 0 127
0.591727 0.244067 0.253405 127 0 127
-0.203108 0.347433 -0.307022 76 0 153
0.348940 0.340980 0.287071 127 0 127
0.596321 -0.662713 -0.182391 76 153 0
0.515849 0.617209 -0.307022 76 0 153
-0.459022 0.714100 -0.078793 76 0 153
-0.310865 0.613236 0.320192 127 0 127
-0.015132 -0.616699 -0.054903 0 255 0
0.629441 -0.550730 0.208347 76 153 0
0.596321 -0.303582 -0.217873 76 153 0
0.596321 0.269096 -0.141191 76 153 0
0.587623 -0.406203 0.320192 127 0 127
-0.060338 0.439520 0.287071 127 0 127
-0.579446 0.551250 0.094035 153 0 76
-0.498844 -0.360244 -0.307022 76 0 153
-0.387093 -0.492128 -0.208337 255 0 0
-0.414783 0.714100 0.169868 76 0 153
0.481081 -0.603692 0.235395 0 255 0
-0.612566 0.256025 -0.181457 153 0 76
0.596321 -0.009002 0.229262 76 153 0
0.596321 -0.222540 0.029278 76 153 0
0.596321 -0.671003 -0.224786 76 153 0
0.502295 -0.110724 0.287071 127 0 127
0.307042 -0.701788 0.064403 153 76 0
0.051509 -0.088409 -0.307022 76 0 153
0.575841 0.628648 0.287071 127 0 127
0.596321 0.555717 -0.121763 76 153 0
0.629441 0.511624 0.029277 76 153 0
0.028383 -0.163636 0.287071 127 0 127
-0.341877 0.714100 0.255376 76 0 153
0.218856 0.722538 -0.313232 76 0 153
0.596321 0.080826 -0.083037 76 153 0
0.629441 0.369459 0.285876 127 0 127
0.596321 0.405398 -0.080984 76 153 0
0.596321 -0.554281 -0.055027 76 153 0
-0.434625 -0.219028 -0.307022 76 0 153
-0.612566 0.370891 -0.045439 153 0 76
0.111629 -0.668668 0.213944 153 76 0
0.288535 -0.413626 -0.307022 76 0 153
-0.545107 -0.065605 0.287071 127 0 127
0.124376 0.338404 0.320192 127 0 127
0.103612 -0.618769 0.117863 0 255 0
0.242691 -0.618769 -0.150131 0 255 0
0.602050 -0.407829 -0.307022 76 153 0
-0.441749 -0.437673 -0.307022 76 0 153
-0.143878 0.747221 0.119512 76 0 153
-0.024177 0.517401 0.320192 127 0 127
0.596321 -0.360432 0.193273 76 153 0
0.381754 0.428457 0.287071 127 0 127
0.596321 -0.674622 -0.059308 153 76 0
-0.434823 -0.405127 -0.137231 255 0 0
0.064377 -0.367403 -0.307022 76 0 153
-0.101478 -0.052066 0.287071 127 0 127
0.543513 0.001353 0.320192 127 0 127
-0.290686 0.646976 -0.313232 76 0 153
-0.612566 -0.594436 -0.194158 153 0 76
0.419743 -0.139374 -0.307022 76 0 153
0.604632 -0.563142 -0.333932 76 153 0
0.629441 0.225258 0.117825 76 153 0
-0.251202 -0.701788 0.026739 153 76 0
0.475097 -0.365762 -0.313232 76 0 153
-0.255567 -0.432410 0.320192 127 0 127
-0.293365 -0.243563 -0.307022 76 0 153
-0.018728 -0.595999 0.252759 0 255 0
-0.519555 -0.398963 0.329534 0 127 127
-0.093409 -0.668668 -0.088448 153 76 0
0.390223 -0.472796 0.287071 127 0 127
0.395530 -0.616699 0.200099 0 255 0
-0.509938 0.492535 -0.313232 76 0 153
0.457396 -0.701788 -0.229828 153 76 0
0.629441 0.437822 -0.074188 76 153 0
-0.313831 -0.618769 0.233083 0 255 0
-0.098225 0.258279 0.016476 0 0 255
0.008247 0.747221 0.017740 76 0 153
0.370669 -0.469229 0.320192 127 0 127
0.352667 -0.340298 0.320192 127 0 127
0.021556 -0.636655 -0.249110 76 0 153
-0.368647 0.474821 0.287071 127 0 127
0.132259 -0.618769 -0.108322 0 255 0
0.625023 0.325777 0.298900 127 0 127
-0.579446 0.592645 -0.211831 153 0 76
-0.072995 0.308672 -0.275431 0 0 255
0.138477 -0.614181 0.237243 0 255 0
-0.143307 -0.701788 0.234514 153 76 0
-0.121154 0.747221 0.019364 76 0 153
0.377997 0.644086 -0.307022 76 0 153
-0.353007 -0.668668 -0.011063 153 76 0
-0.384588 -0.557648 -0.313232 76 0 153
-0.612566 -0.349421 -0.259965 153 0 76
-0.439345 -0.668668 0.153702 153 76 0
-0.178057 0.747221 0.051100 76 0 153
-0.519399 0.058856 0.287071 127 0 127
