0.054093 0.115673 -0.526037 0.000000 0.000000 1.000000
0.605368 -0.038216 -0.363928 0.500000 0.000000 0.500000
0.580962 0.059176 0.638614 0.600000 0.000000 0.300000
-0.350897 -0.118707 0.379867 0.600000 0.000000 0.300000
0.303225 0.066962 0.618388 0.600000 0.300000 0.000000
-0.641860 -0.310695 -0.609451 0.300000 0.000000 0.600000
-0.641860 -0.202250 0.372727 0.600000 0.300000 0.000000
-0.601260 0.115673 -0.368603 0.000000 0.000000 1.000000
0.200076 -0.082780 -0.622936 0.300000 0.600000 0.000000
0.418111 0.135898 0.075775 0.000000 0.000000 1.000000
-0.439192 0.135898 0.128773 0.000000 0.000000 1.000000
0.672786 -0.161790 -0.075933 0.500000 0.000000 0.500000
0.384560 -0.105223 0.614372 0.000000 0.000000 1.000000
-0.285603 0.038513 0.638614 0.000000 1.000000 0.000000
-0.516050 -0.118707 0.623323 0.000000 1.000000 0.000000
0.139792 0.055118 0.658839 0.600000 0.300000 0.000000
0.672786 -0.121043 -0.139006 0.500000 0.000000 0.500000
-0.005798 -0.053793 -0.114264 1.000000 0.000000 0.000000
0.083016 0.075754 0.132842 0.300000 0.000000 0.600000
0.632335 0.107581 -0.421668 0.600000 0.000000 0.300000
0.625593 -0.023303 0.092313 0.500000 0.000000 0.500000
0.263293 0.115673 -0.559704 0.000000 0.000000 1.000000
-0.560959 0.022816 0.370850 0.500000 0.000000 0.500000
0.638902 0.135898 0.136932 0.000000 0.000000 1.000000
-0.621635 0.016247 -0.006600 0.300000 0.000000 0.600000
0.575527 0.115673 0.328977 0.000000 0.000000 1.000000
-0.018382 -0.044810 -0.394966 1.000000 0.000000 0.000000
-0.621635 0.047875 0.337604 0.300000 0.000000 0.600000
0.001843 0.011734 -0.103708 1.000000 0.000000 0.000000
-0.621635 -0.131951 0.023002 0.300000 0.000000 0.600000
0.597315 0.135898 -0.612753 0.000000 0.000000 1.000000
-0.621635 -0.134153 -0.416352 0.300000 0.000000 0.600000
0.532086 -0.081136 -0.602710 0.300000 0.600000 0.000000
-0.220785 -0.118707 0.373961 0.600000 0.000000 0.300000
-0.618357 0.115673 -0.308618 0.300000 0.000000 0.600000
-0.387772 0.036560 0.638614 0.000000 1.000000 0.000000
0.632335 -0.121087 0.235871 0.600000 0.000000 0.300000
0.120996 0.041534 0.638614 0.600000 0.300000 0.000000
0.183021 -0.105223 0.404905 0.000000 0.000000 1.000000
-0.541095 0.078525 0.346659 0.500000 0.000000 0.500000
0.183904 -0.089008 -0.602710 0.300000 0.600000 0.000000
-0.576923 0.115673 0.241266 0.000000 0.000000 1.000000
-0.574443 -0.028266 0.064060 0.500000 0.500000 0.000000
-0.540734 0.069067 0.116828 0.500000 0.000000 0.500000
-0.379011 -0.146898 0.388331 0.600000 0.000000 0.300000
-0.552987 0.135898 -0.356302 0.000000 0.000000 1.000000
0.029082 -0.040437 -0.226051 0.000000 0.000000 1.000000
-0.420946 -0.037619 -0.622936 0.300000 0.600000 0.000000
0.358944 0.136207 -0.643161 0.600000 0.300000 0.000000
-0.621635 -0.006420 -0.371536 0.300000 0.000000 0.600000
-0.567181 0.135898 0.366531 0.000000 0.000000 1.000000
0.439925 0.115673 -0.451019 0.000000 0.000000 1.000000
0.353246 0.074889 -0.602710 0.300000 0.600000 0.000000
-0.621635 -0.105635 -0.471212 0.300000 0.000000 0.600000
0.160653 0.135898 -0.598972 0.000000 0.000000 1.000000
0.632335 -0.111038 0.311583 0.600000 0.000000 0.300000
0.491360 -0.087884 0.658839 0.600000 0.300000 0.000000
-0.325522 -0.095111 0.528028 0.300000 0.600000 0.000000
0.078970 0.056553 0.638614 0.600000 0.300000 0.000000
-0.207849 0.115673 0.130312 0.000000 0.000000 1.000000
0.632335 -0.073005 -0.392821 0.600000 0.000000 0.300000
0.652560 -0.085552 -0.158588 0.600000 0.000000 0.300000
0.652560 0.093136 -0.057324 0.300000 0.000000 0.600000
-0.508846 0.135898 -0.246845 0.000000 0.000000 1.000000
-0.303425 0.115673 -0.209607 0.000000 0.000000 1.000000
0.652560 -0.087327 -0.277258 0.600000 0.000000 0.300000
-0.560959 -0.049364 0.376168 0.500000 0.000000 0.500000
-0.187213 -0.080896 -0.622936 0.300000 0.600000 0.000000
-0.601410 -0.027594 -0.561839 0.300000 0.000000 0.600000
0.021565 0.135898 -0.159651 0.000000 0.000000 1.000000
0.257370 0.004506 -0.622936 0.300000 0.600000 0.000000
0.312630 0.135898 -0.576422 0.000000 0.000000 1.000000
0.293400 0.115673 -0.563016 0.000000 0.000000 1.000000
0.094755 -0.036777 0.638614 0.600000 0.300000 0.000000
0.652560 -0.017459 -0.174580 0.600000 0.000000 0.300000
-0.204421 -0.099623 0.628501 0.300000 0.600000 0.000000
-0.018382 -0.045870 0.109528 1.000000 0.000000 0.000000
0.286789 -0.044530 -0.602710 0.300000 0.600000 0.000000
0.592020 0.016438 0.459453 0.600000 0.000000 0.300000
-0.641860 -0.061669 -0.117011 1.000000 0.000000 0.000000
-0.258488 0.115673 0.102254 0.000000 0.000000 1.000000
0.632335 -0.068132 -0.433489 0.600000 0.000000 0.300000
-0.510981 -0.057781 -0.602710 0.300000 0.600000 0.000000
0.515375 0.026037 0.099272 0.800000 0.200000 0.500000
-0.604237 0.086634 -0.643161 0.300000 0.000000 0.600000
0.480293 -0.053051 -0.602710 0.300000 0.600000 0.000000
-0.579309 -0.053793 -0.094486 0.500000 0.500000 0.000000
-0.415083 -0.105223 0.436574 0.300000 0.600000 0.000000
-0.539492 0.115673 0.266947 0.000000 0.000000 1.000000
-0.206337 -0.105223 0.222242 0.300000 0.600000 0.000000
0.652560 0.091835 -0.391194 0.300000 0.000000 0.600000
0.080331 -0.182419 -0.643161 0.000000 1.000000 0.000000
-0.621635 0.002157 0.338440 0.300000 0.000000 0.600000
0.132294 -0.012412 -0.622936 0.300000 0.600000 0.000000
0.625593 -0.045933 0.252414 0.500000 0.000000 0.500000
0.553989 0.078525 -0.642943 0.600000 0.300000 0.000000
-0.426169 -0.068187 0.658839 0.000000 1.000000 0.000000
0.188500 0.135898 -0.335933 0.000000 0.000000 1.000000
-0.157985 0.135898 -0.618116 0.000000 0.000000 1.000000
0.571795 -0.055688 0.224201 0.600000 0.000000 0.300000
-0.616570 0.135898 -0.076507 0.000000 0.000000 1.000000
0.438589 0.135898 -0.352299 0.000000 0.000000 1.000000
0.279849 0.135898 -0.609001 0.000000 0.000000 1.000000
-0.478663 -0.078486 0.658839 0.000000 1.000000 0.000000
-0.621635 -0.084355 -0.133999 0.300000 0.000000 0.600000
0.029082 -0.029140 -0.470458 0.000000 0.000000 1.000000
0.396548 0.013862 0.658839 0.600000 0.300000 0.000000
0.589056 0.135898 -0.531407 0.000000 0.000000 1.000000
0.117490 0.135898 -0.341409 0.000000 0.000000 1.000000
-0.031730 -0.049879 0.461506 0.500000 0.500000 0.000000
0.652560 -0.085077 0.308664 0.600000 0.000000 0.300000
0.592020 -0.082866 0.221646 0.600000 0.000000 0.300000
0.616151 0.115673 0.250371 0.000000 0.000000 1.000000
-0.621635 0.049064 0.073902 0.300000 0.000000 0.600000
0.485192 0.135898 0.275374 0.000000 0.000000 1.000000
-0.311225 0.115673 0.154342 0.000000 0.000000 1.000000
-0.310084 0.135898 -0.590093 0.000000 0.000000 1.000000
-0.062422 0.050361 -0.602710 0.300000 0.600000 0.000000
-0.016415 0.135898 -0.304517 0.000000 0.000000 1.000000
-0.364616 -0.074755 0.099272 0.000000 0.500000 0.500000
-0.018382 -0.017647 -0.065483 1.000000 0.000000 0.000000
0.581565 -0.138863 -0.608608 0.300000 0.600000 0.000000
-0.233086 0.113521 -0.643161 0.600000 0.300000 0.000000
-0.051955 -0.040142 0.567948 0.500000 0.500000 0.000000
0.442558 0.094146 0.388331 0.600000 0.000000 0.300000
-0.583178 -0.017495 -0.643161 0.300000 0.000000 0.600000
0.072904 -0.096209 0.156892 0.000000 0.000000 1.000000
0.491522 -0.095111 0.503893 0.000000 0.000000 1.000000
0.170515 -0.108672 0.119497 0.800000 0.200000 0.500000
-0.557985 0.115673 0.154085 0.000000 0.000000 1.000000
0.632335 0.088701 -0.293124 0.600000 0.000000 0.300000
-0.017159 0.135898 -0.065766 0.000000 0.000000 1.000000
-0.200501 -0.167059 0.368105 0.600000 0.000000 0.300000
-0.641860 -0.060048 -0.631658 0.300000 0.000000 0.600000
0.652560 -0.149785 -0.376422 0.500000 0.000000 0.500000
-0.574443 0.013612 -0.517191 0.500000 0.500000 0.000000
0.587467 0.115673 -0.163099 0.000000 0.000000 1.000000
0.672786 -0.152161 -0.118405 0.500000 0.000000 0.500000
0.199554 0.135898 0.053932 0.000000 0.000000 1.000000
0.355721 -0.109390 0.638614 0.600000 0.300000 0.000000
0.029082 0.011130 -0.035915 0.000000 0.000000 1.000000
0.313802 0.115673 -0.622336 0.000000 0.000000 1.000000
0.063789 0.115673 0.278920 0.000000 0.000000 1.000000
-0.574443 -0.042801 0.019132 0.500000 0.500000 0.000000
0.406887 0.080109 -0.622936 0.300000 0.600000 0.000000
-0.619414 -0.047254 0.388331 0.600000 0.300000 0.000000
0.652560 0.054419 0.311217 0.600000 0.000000 0.300000
-0.232836 -0.006772 0.099272 0.000000 0.500000 0.500000
0.370315 -0.034838 0.658839 0.600000 0.300000 0.000000
0.189859 -0.032517 -0.622936 0.300000 0.600000 0.000000
0.628874 -0.292107 0.368105 0.800000 0.200000 0.500000
-0.025098 0.115673 -0.281274 0.000000 0.000000 1.000000
0.268093 -0.105223 0.556474 0.000000 0.000000 1.000000
-0.641860 0.096425 -0.140854 0.800000 0.200000 0.500000
-0.621635 0.068303 -0.588448 0.300000 0.000000 0.600000
0.652560 -0.023041 0.332518 0.800000 0.200000 0.500000
-0.466208 0.048475 0.099272 0.000000 0.500000 0.500000
0.067435 0.135898 0.249343 0.000000 0.000000 1.000000
0.029082 -0.001823 0.013470 0.000000 0.000000 1.000000
0.398212 0.115673 0.224904 0.000000 0.000000 1.000000
-0.560959 -0.085727 0.176461 0.500000 0.000000 0.500000
0.652560 -0.187439 -0.591797 0.600000 0.000000 0.300000
-0.178386 0.135898 -0.397756 0.000000 0.000000 1.000000
-0.601410 -0.096798 0.278412 0.300000 0.000000 0.600000
0.319628 0.135898 0.253845 0.000000 0.000000 1.000000
0.411710 0.135898 0.105492 0.000000 0.000000 1.000000
-0.560959 0.059032 0.245300 0.500000 0.000000 0.500000
0.083016 -0.036312 0.384687 0.300000 0.000000 0.600000
0.317823 0.135898 -0.028869 0.000000 0.000000 1.000000
0.632335 0.030922 0.264148 0.600000 0.000000 0.300000
-0.140733 -0.139608 -0.643161 0.000000 1.000000 0.000000
-0.641860 -0.098085 -0.129213 1.000000 0.000000 0.000000
-0.270584 0.115673 0.288072 0.000000 0.000000 1.000000
0.364345 -0.105223 0.605611 0.000000 0.000000 1.000000
0.267221 0.135898 -0.462135 0.000000 0.000000 1.000000
-0.387711 0.115673 -0.210873 0.000000 0.000000 1.000000
0.524620 0.115673 -0.326496 0.000000 0.000000 1.000000
-0.591538 0.115673 0.355470 0.000000 0.000000 1.000000
0.579340 -0.000559 -0.602710 0.300000 0.600000 0.000000
0.502141 -0.143927 0.388331 0.600000 0.000000 0.300000
-0.437186 -0.126766 -0.643161 0.000000 1.000000 0.000000
0.672786 -0.002604 -0.097322 0.000000 0.500000 0.500000
0.662673 0.127102 0.217482 0.000000 0.000000 1.000000
0.296015 -0.040112 0.099272 0.800000 0.200000 0.500000
0.294278 0.115673 -0.254188 0.000000 0.000000 1.000000
0.480846 0.131537 0.378218 0.600000 0.000000 0.300000
-0.324968 0.115673 -0.505616 0.000000 0.000000 1.000000
-0.524193 0.135898 0.238429 0.000000 0.000000 1.000000
-0.051033 -0.105223 0.393535 0.300000 0.600000 0.000000
0.145965 -0.172978 -0.643161 0.000000 1.000000 0.000000
-0.057645 -0.093304 -0.622936 0.300000 0.600000 0.000000
0.626527 0.135898 -0.178525 0.000000 0.000000 1.000000
-0.609304 -0.138863 -0.093506 0.300000 0.000000 0.600000
-0.641860 0.140199 0.009333 0.800000 0.200000 0.500000
-0.395245 0.135898 -0.296714 0.000000 0.000000 1.000000
0.652560 -0.114536 -0.129605 0.000000 0.500000 0.500000
-0.043321 0.104902 0.368105 0.600000 0.000000 0.300000
-0.282003 0.008562 0.638614 0.000000 1.000000 0.000000
-0.270227 -0.095111 0.271499 0.300000 0.600000 0.000000
0.672786 0.081618 -0.492913 0.300000 0.000000 0.600000
0.652560 0.094263 0.180825 0.600000 0.000000 0.300000
0.592020 0.046870 0.267285 0.600000 0.000000 0.300000
-0.560509 -0.031099 -0.602710 0.300000 0.600000 0.000000
0.197209 0.039109 0.119497 0.800000 0.200000 0.500000
0.571795 0.025863 0.223192 0.600000 0.000000 0.300000
0.146877 0.135898 -0.314483 0.000000 0.000000 1.000000
0.026894 0.135898 -0.483951 0.000000 0.000000 1.000000
0.160130 -0.087573 -0.602710 0.300000 0.600000 0.000000
0.509813 0.092819 -0.643161 0.600000 0.300000 0.000000
-0.141024 -0.052544 -0.602710 0.300000 0.600000 0.000000
-0.471448 0.135898 0.242290 0.000000 0.000000 1.000000
-0.362298 -0.095111 0.437767 0.300000 0.600000 0.000000
-0.051955 0.061426 0.157788 0.500000 0.500000 0.000000
0.364640 0.135898 -0.222613 0.000000 0.000000 1.000000
-0.624070 0.135898 -0.115476 0.000000 0.000000 1.000000
0.191239 -0.138416 -0.622936 0.000000 1.000000 0.000000
-0.129313 0.118978 -0.633048 0.000000 0.000000 1.000000
-0.552672 0.078525 0.558300 0.500000 0.000000 0.500000
-0.050019 0.135898 -0.559728 0.000000 0.000000 1.000000
-0.621635 -0.095932 -0.358629 0.300000 0.000000 0.600000
0.621748 -0.256495 -0.622936 0.600000 0.000000 0.300000
-0.601410 0.111241 -0.419119 0.300000 0.000000 0.600000
0.568880 0.115673 -0.629373 0.600000 0.300000 0.000000
0.060169 0.097519 -0.622936 0.300000 0.600000 0.000000
-0.540734 -0.018141 0.204434 0.500000 0.000000 0.500000
-0.621635 -0.067212 -0.322629 0.300000 0.000000 0.600000
-0.307252 -0.095111 0.471160 0.300000 0.600000 0.000000
0.359926 0.135898 -0.561599 0.000000 0.000000 1.000000
0.374130 0.115673 -0.402918 0.000000 0.000000 1.000000
0.086350 -0.152921 -0.622936 0.000000 1.000000 0.000000
-0.325158 -0.101583 0.638614 0.000000 1.000000 0.000000
0.141924 -0.118707 0.623210 0.600000 0.300000 0.000000
-0.621635 -0.078929 -0.245095 0.300000 0.000000 0.600000
-0.576390 0.135898 0.201530 0.000000 0.000000 1.000000
0.660564 -0.034974 -0.161260 0.000000 0.500000 0.500000
0.592020 0.027530 0.420798 0.600000 0.000000 0.300000
-0.546973 0.135898 -0.313959 0.000000 0.000000 1.000000
-0.560959 -0.050762 0.632536 0.500000 0.000000 0.500000
0.672786 -0.273357 0.334124 0.800000 0.200000 0.500000
-0.549577 0.115673 -0.467340 0.000000 0.000000 1.000000
-0.296930 0.115673 -0.149660 0.000000 0.000000 1.000000
0.592020 -0.046042 0.320856 0.600000 0.000000 0.300000
-0.592564 0.050734 0.368105 0.600000 0.300000 0.000000
-0.560959 0.040132 0.520887 0.500000 0.000000 0.500000
-0.333835 -0.134270 0.368105 0.600000 0.000000 0.300000
-0.274714 0.115673 0.357183 0.000000 0.000000 1.000000
0.406162 0.135898 -0.374668 0.000000 0.000000 1.000000
0.298973 -0.095111 0.545078 0.000000 0.000000 1.000000
0.496611 0.135898 -0.165062 0.000000 0.000000 1.000000
-0.621191 -0.354983 -0.643161 0.300000 0.000000 0.600000
0.562676 0.135898 0.042260 0.000000 0.000000 1.000000
0.434371 0.104806 -0.643161 0.600000 0.300000 0.000000
-0.431632 0.135898 -0.106992 0.000000 0.000000 1.000000
-0.051955 -0.044446 0.186387 0.500000 0.500000 0.000000
0.632335 0.063684 -0.406665 0.600000 0.000000 0.300000
-0.344923 0.135898 0.132570 0.000000 0.000000 1.000000
-0.504650 0.135898 -0.608167 0.000000 0.000000 1.000000
0.625549 0.013897 0.063457 0.500000 0.000000 0.500000
-0.294612 0.135898 -0.240566 0.000000 0.000000 1.000000
0.672786 -0.177249 0.311070 0.500000 0.000000 0.500000
0.632335 0.036782 -0.454135 0.600000 0.000000 0.300000
0.334567 -0.082264 0.658839 0.600000 0.300000 0.000000
-0.398062 0.015914 0.119497 0.000000 0.500000 0.500000
0.632335 0.084031 0.282819 0.600000 0.000000 0.300000
0.605368 -0.028419 0.377731 0.800000 0.200000 0.500000
-0.641860 -0.114003 0.377680 0.600000 0.300000 0.000000
-0.121459 0.115673 0.039261 0.000000 0.000000 1.000000
0.083016 0.004849 0.305142 0.300000 0.000000 0.600000
-0.603629 -0.138863 -0.138339 0.300000 0.000000 0.600000
0.634378 -0.104341 0.368105 0.600000 0.000000 0.300000
-0.491861 0.062782 0.638614 0.000000 1.000000 0.000000
-0.126307 0.115673 0.268558 0.000000 0.000000 1.000000
-0.540734 0.043809 0.199078 0.500000 0.000000 0.500000
0.318099 0.135898 -0.546007 0.000000 0.000000 1.000000
-0.621635 -0.076946 0.344292 0.300000 0.000000 0.600000
-0.449570 0.115673 -0.541754 0.000000 0.000000 1.000000
0.475609 0.115673 -0.020724 0.000000 0.000000 1.000000
-0.465772 0.115673 -0.559339 0.000000 0.000000 1.000000
-0.621635 0.086075 0.212019 0.300000 0.000000 0.600000
0.219743 0.135898 -0.009326 0.000000 0.000000 1.000000
0.428332 0.005849 0.099272 0.800000 0.200000 0.500000
-0.560959 -0.114633 0.144680 0.500000 0.000000 0.500000
-0.403473 -0.148771 0.388331 0.600000 0.000000 0.300000
-0.456987 -0.110292 -0.602710 0.300000 0.600000 0.000000
0.572905 0.115673 0.353431 0.000000 0.000000 1.000000
-0.401704 0.135898 -0.327646 0.000000 0.000000 1.000000
-0.641860 0.110824 -0.369002 0.800000 0.200000 0.500000
-0.001517 0.115673 0.311235 0.000000 0.000000 1.000000
-0.601410 0.023791 -0.474273 0.300000 0.000000 0.600000
0.193129 0.135898 -0.258975 0.000000 0.000000 1.000000
-0.574443 -0.083471 0.643151 0.000000 1.000000 0.000000
-0.182013 0.115673 0.287021 0.000000 0.000000 1.000000
-0.125146 0.069108 0.638614 0.000000 1.000000 0.000000
-0.513240 -0.003997 0.099272 0.000000 0.500000 0.500000
-0.421761 0.115673 -0.438584 0.000000 0.000000 1.000000
-0.566699 0.115673 0.222254 0.000000 0.000000 1.000000
-0.395670 -0.070603 0.618388 0.000000 1.000000 0.000000
0.228733 -0.123499 0.368105 0.600000 0.000000 0.300000
0.474386 -0.105223 0.484244 0.000000 0.000000 1.000000
0.144641 0.115673 -0.618872 0.300000 0.600000 0.000000
-0.621635 0.006260 -0.244007 0.300000 0.000000 0.600000
0.440838 -0.169368 0.368105 0.600000 0.000000 0.300000
-0.574443 -0.032627 0.185563 0.500000 0.500000 0.000000
-0.073533 -0.144975 0.368105 0.600000 0.000000 0.300000
-0.031730 0.078101 0.629343 0.500000 0.500000 0.000000
-0.212656 -0.095111 0.531793 0.300000 0.600000 0.000000
-0.117245 0.112907 0.388331 0.600000 0.000000 0.300000
-0.432340 0.115673 0.258773 0.000000 0.000000 1.000000
-0.336091 -0.105223 0.504259 0.300000 0.600000 0.000000
0.652560 0.102609 0.112090 0.300000 0.000000 0.600000
0.073964 0.115673 -0.436730 0.000000 0.000000 1.000000
-0.260204 0.030941 0.099272 0.000000 0.500000 0.500000
-0.339018 0.135898 -0.131618 0.000000 0.000000 1.000000
-0.367469 0.115673 -0.174111 0.000000 0.000000 1.000000
-0.398602 -0.011052 -0.622936 0.300000 0.600000 0.000000
0.571795 0.037861 0.195986 0.600000 0.000000 0.300000
-0.112061 -0.144854 0.388331 0.600000 0.000000 0.300000
-0.631748 0.127492 0.176576 0.000000 0.000000 1.000000
-0.266006 -0.050871 0.618388 0.000000 1.000000 0.000000
-0.097903 0.115673 -0.077942 0.000000 0.000000 1.000000
-0.371368 -0.095111 0.327548 0.300000 0.600000 0.000000
-0.318017 0.115673 -0.231221 0.000000 0.000000 1.000000
0.542962 0.017691 0.119497 0.800000 0.200000 0.500000
-0.169109 0.095057 0.388331 0.600000 0.000000 0.300000
-0.406413 0.115673 -0.515420 0.000000 0.000000 1.000000
-0.095414 0.043677 0.658839 0.000000 1.000000 0.000000
-0.641860 0.139437 0.104600 0.800000 0.200000 0.500000
0.120274 0.113414 -0.643161 0.600000 0.300000 0.000000
-0.598292 -0.328355 0.368105 0.600000 0.300000 0.000000
-0.641582 0.005486 0.388053 0.600000 0.300000 0.000000
-0.309482 0.103204 -0.602710 0.300000 0.600000 0.000000
0.097389 -0.152049 0.388331 0.600000 0.000000 0.300000
-0.640992 -0.220147 0.387463 0.600000 0.300000 0.000000
-0.621635 -0.004407 -0.303001 0.300000 0.000000 0.600000
-0.028395 -0.098487 0.658839 0.000000 1.000000 0.000000
-0.308069 0.115673 0.066912 0.000000 0.000000 1.000000
0.552607 0.115673 -0.112325 0.000000 0.000000 1.000000
-0.061458 -0.069192 0.099272 0.000000 0.500000 0.500000
0.511550 -0.102332 0.658839 0.600000 0.300000 0.000000
-0.517873 0.074602 -0.622936 0.300000 0.600000 0.000000
-0.584184 -0.020574 -0.602710 0.300000 0.600000 0.000000
-0.621635 0.065708 0.130626 0.300000 0.000000 0.600000
0.250938 -0.001111 0.638614 0.600000 0.300000 0.000000
0.029082 -0.042956 0.269908 0.000000 0.000000 1.000000
0.592020 0.011228 0.288769 0.600000 0.000000 0.300000
0.652560 0.036670 -0.144979 0.000000 0.500000 0.500000
0.286046 -0.112026 0.658839 0.600000 0.300000 0.000000
0.332797 -0.095111 0.445695 0.000000 0.000000 1.000000
0.459890 -0.095111 0.118283 0.000000 0.000000 1.000000
0.672786 -0.168724 0.092103 0.500000 0.000000 0.500000
-0.390036 -0.095111 0.146659 0.300000 0.600000 0.000000
0.663489 -0.371826 0.388331 0.800000 0.200000 0.500000
-0.029470 0.135898 0.176348 0.000000 0.000000 1.000000
-0.601410 0.095034 -0.564049 0.300000 0.000000 0.600000
-0.621635 0.091322 -0.010137 0.800000 0.200000 0.500000
-0.472961 0.135898 -0.526991 0.000000 0.000000 1.000000
0.652560 -0.045680 -0.402063 0.600000 0.000000 0.300000
0.062791 0.011943 0.357750 0.300000 0.000000 0.600000
0.049307 -0.015909 -0.001941 0.000000 0.000000 1.000000
0.644225 -0.061874 0.368105 0.600000 0.000000 0.300000
0.119323 0.021215 -0.602710 0.300000 0.600000 0.000000
0.571795 -0.057154 0.559066 0.600000 0.000000 0.300000
0.339626 0.144321 -0.633048 0.600000 0.300000 0.000000
0.652560 0.081984 -0.553633 0.600000 0.000000 0.300000
-0.621635 -0.072595 -0.401020 0.300000 0.000000 0.600000
0.271857 0.055333 0.658839 0.600000 0.300000 0.000000
0.408459 -0.092064 0.119497 0.800000 0.200000 0.500000
0.515247 -0.095111 0.478523 0.000000 0.000000 1.000000
0.632335 0.078395 0.210857 0.600000 0.000000 0.300000
-0.619749 -0.138863 -0.334761 0.300000 0.000000 0.600000
0.434433 0.135898 -0.067612 0.000000 0.000000 1.000000
0.617701 -0.305128 -0.622936 0.600000 0.000000 0.300000
0.197445 0.115673 -0.325831 0.000000 0.000000 1.000000
0.672786 -0.164510 -0.163611 0.500000 0.000000 0.500000
0.167208 -0.186043 -0.622936 0.000000 1.000000 0.000000
0.217487 0.078525 -0.636450 0.600000 0.300000 0.000000
0.672786 0.066300 -0.613368 0.600000 0.000000 0.300000
0.364924 -0.105223 0.553341 0.000000 0.000000 1.000000
0.264091 0.031952 0.638614 0.600000 0.300000 0.000000
-0.601410 -0.052703 0.289716 0.300000 0.000000 0.600000
0.672786 -0.124068 -0.272575 0.500000 0.000000 0.500000
0.023169 0.113130 0.368105 0.600000 0.000000 0.300000
-0.430534 -0.117594 0.119497 0.000000 0.500000 0.500000
0.404000 0.070664 0.119497 0.800000 0.200000 0.500000
0.632335 -0.002752 -0.608784 0.600000 0.000000 0.300000
-0.083320 0.053459 0.119497 0.000000 0.500000 0.500000
-0.040185 0.119959 -0.633048 0.600000 0.300000 0.000000
-0.146898 0.115673 -0.309758 0.000000 0.000000 1.000000
-0.546980 0.135898 0.109774 0.000000 0.000000 1.000000
0.638091 -0.138863 -0.041305 0.600000 0.000000 0.300000
0.157212 -0.060418 0.099272 0.800000 0.200000 0.500000
-0.621635 -0.074888 -0.004083 0.300000 0.000000 0.600000
-0.031730 0.025619 0.272365 0.500000 0.500000 0.000000
-0.256768 -0.040335 0.658839 0.000000 1.000000 0.000000
0.206426 0.135898 -0.609372 0.000000 0.000000 1.000000
-0.601410 -0.078088 -0.097037 0.300000 0.000000 0.600000
-0.269137 -0.088449 0.618388 0.000000 1.000000 0.000000
0.208916 0.135898 -0.039865 0.000000 0.000000 1.000000
0.137020 -0.095111 0.110476 0.000000 0.000000 1.000000
-0.350566 0.135898 -0.616188 0.000000 0.000000 1.000000
0.077289 0.140419 0.378218 0.600000 0.000000 0.300000
0.182051 0.135898 -0.536811 0.000000 0.000000 1.000000
0.062791 0.001169 0.461188 0.300000 0.000000 0.600000
-0.252747 0.135898 0.019140 0.000000 0.000000 1.000000
0.179115 0.135898 -0.449588 0.000000 0.000000 1.000000
-0.601410 0.111870 0.099122 0.300000 0.000000 0.600000
0.565401 0.135898 0.343069 0.000000 0.000000 1.000000
-0.579378 0.013897 -0.268001 0.500000 0.500000 0.000000
0.592020 -0.012439 0.629149 0.600000 0.000000 0.300000
0.544688 0.028630 0.618388 0.600000 0.300000 0.000000
0.306794 0.135898 -0.466915 0.000000 0.000000 1.000000
-0.641860 -0.132629 -0.169578 0.000000 1.000000 0.000000
0.652560 -0.001070 -0.127683 0.000000 0.500000 0.500000
0.261230 0.009291 0.658839 0.600000 0.300000 0.000000
0.652560 0.047922 0.145355 0.600000 0.000000 0.300000
-0.345219 0.115673 -0.089095 0.000000 0.000000 1.000000
-0.468357 0.083291 0.368105 0.600000 0.000000 0.300000
0.498530 0.135898 0.184338 0.000000 0.000000 1.000000
0.050040 0.019959 -0.622936 0.300000 0.600000 0.000000
0.049307 -0.048793 0.074278 0.000000 0.000000 1.000000
0.083016 0.067289 0.245723 0.300000 0.000000 0.600000
0.069145 0.135898 0.294079 0.000000 0.000000 1.000000
0.330198 -0.095111 0.355735 0.000000 0.000000 1.000000
0.625593 -0.012000 0.308255 0.500000 0.000000 0.500000
-0.463044 0.017868 0.658839 0.000000 1.000000 0.000000
0.592020 -0.020779 0.533507 0.600000 0.000000 0.300000
0.632335 0.101025 0.021004 0.600000 0.000000 0.300000
0.264358 -0.111359 0.638614 0.600000 0.300000 0.000000
-0.361720 -0.095111 0.395197 0.300000 0.600000 0.000000
0.652560 -0.105709 0.094104 0.600000 0.000000 0.300000
-0.385812 0.135898 -0.100883 0.000000 0.000000 1.000000
0.049307 -0.037646 -0.514574 0.000000 0.000000 1.000000
0.286875 -0.054331 0.119497 0.800000 0.200000 0.500000
-0.415569 -0.123216 0.368105 0.600000 0.000000 0.300000
0.152378 -0.105223 0.194670 0.000000 0.000000 1.000000
0.029082 -0.025557 -0.423795 0.000000 0.000000 1.000000
-0.601410 0.001310 0.075476 0.300000 0.000000 0.600000
0.672786 -0.135292 -0.592871 0.600000 0.000000 0.300000
-0.031730 0.003893 0.367204 0.500000 0.500000 0.000000
-0.487355 -0.120786 0.368105 0.600000 0.000000 0.300000
0.672786 0.126066 -0.010268 0.300000 0.000000 0.600000
-0.310107 0.008141 0.658839 0.000000 1.000000 0.000000
-0.051955 -0.055637 0.408252 0.500000 0.500000 0.000000
-0.641860 -0.177418 -0.306302 0.000000 1.000000 0.000000
0.652560 -0.055403 -0.372607 0.600000 0.000000 0.300000
-0.510943 -0.045143 0.618388 0.000000 1.000000 0.000000
-0.560959 -0.057217 0.517614 0.500000 0.000000 0.500000
0.081935 -0.066416 -0.602710 0.300000 0.600000 0.000000
0.206091 0.115673 0.153561 0.000000 0.000000 1.000000
-0.601410 0.028865 0.150036 0.300000 0.000000 0.600000
0.577899 -0.118707 0.170690 0.600000 0.000000 0.300000
0.384696 -0.072338 0.618388 0.600000 0.300000 0.000000
-0.447900 0.135898 -0.073077 0.000000 0.000000 1.000000
-0.506506 -0.180234 0.368105 0.600000 0.000000 0.300000
-0.191938 0.135898 -0.492586 0.000000 0.000000 1.000000
0.460911 -0.105223 0.531314 0.000000 0.000000 1.000000
0.632335 -0.053968 -0.289574 0.600000 0.000000 0.300000
0.584299 0.125760 -0.643161 0.600000 0.300000 0.000000
0.108944 -0.100542 0.638614 0.600000 0.300000 0.000000
0.514589 0.001469 0.638614 0.600000 0.300000 0.000000
0.652739 0.135898 -0.587035 0.000000 0.000000 1.000000
0.504217 0.135898 0.348189 0.000000 0.000000 1.000000
-0.641860 -0.163607 -0.087004 0.000000 1.000000 0.000000
-0.262844 0.135898 0.185502 0.000000 0.000000 1.000000
0.501187 -0.132304 0.368105 0.600000 0.000000 0.300000
0.028731 0.115673 0.339365 0.000000 0.000000 1.000000
-0.437012 -0.014807 0.618388 0.000000 1.000000 0.000000
0.001843 -0.041643 -0.453292 1.000000 0.000000 0.000000
0.632335 -0.070422 -0.063005 0.600000 0.000000 0.300000
-0.404270 -0.095111 0.262705 0.300000 0.600000 0.000000
0.439447 0.115673 0.349652 0.000000 0.000000 1.000000
0.286483 0.115673 -0.135655 0.000000 0.000000 1.000000
0.571795 -0.024751 0.227662 0.600000 0.000000 0.300000
-0.601410 0.019114 -0.094777 0.300000 0.000000 0.600000
-0.617579 0.115673 -0.591133 0.300000 0.000000 0.600000
0.672786 0.012321 0.358095 0.800000 0.200000 0.500000
0.039029 0.115673 -0.038154 0.000000 0.000000 1.000000
0.672786 -0.162368 -0.610147 0.600000 0.000000 0.300000
-0.560959 -0.041889 0.340592 0.500000 0.000000 0.500000
0.562171 0.135898 -0.255580 0.000000 0.000000 1.000000
-0.209947 -0.035665 0.119497 0.000000 0.500000 0.500000
0.571795 -0.033736 0.576256 0.600000 0.000000 0.300000
-0.051955 -0.093654 0.231425 0.500000 0.500000 0.000000
-0.621635 -0.038456 -0.526993 0.300000 0.000000 0.600000
-0.309245 -0.095111 0.343060 0.300000 0.600000 0.000000
0.605368 0.006357 -0.264088 0.500000 0.000000 0.500000
0.632337 0.135898 -0.438544 0.000000 0.000000 1.000000
-0.523857 -0.095111 0.291553 0.300000 0.600000 0.000000
-0.560959 0.066980 0.163898 0.500000 0.000000 0.500000
0.357313 0.135898 -0.494378 0.000000 0.000000 1.000000
0.632335 -0.074824 0.282708 0.600000 0.000000 0.300000
-0.540734 -0.064002 0.130865 0.500000 0.000000 0.500000
0.329829 0.115673 -0.406760 0.000000 0.000000 1.000000
0.632335 -0.042564 0.278389 0.600000 0.000000 0.300000
0.564839 -0.105223 0.430104 0.000000 0.000000 1.000000
-0.107666 0.023069 -0.622936 0.300000 0.600000 0.000000
-0.439612 -0.097891 -0.622936 0.300000 0.600000 0.000000
0.217480 -0.116455 0.119497 0.800000 0.200000 0.500000
-0.621635 -0.105124 0.168373 0.300000 0.000000 0.600000
0.652560 -0.017661 0.187096 0.600000 0.000000 0.300000
0.401793 -0.105223 0.568129 0.000000 0.000000 1.000000
0.549229 0.135898 -0.347647 0.000000 0.000000 1.000000
-0.621635 -0.127359 -0.000875 0.000000 1.000000 0.000000
0.605368 -0.029908 0.051331 0.500000 0.000000 0.500000
0.626061 -0.348480 -0.643161 0.600000 0.000000 0.300000
-0.241887 0.115673 -0.035761 0.000000 0.000000 1.000000
-0.031730 0.030652 0.573598 0.500000 0.500000 0.000000
0.418381 -0.141650 -0.643161 0.000000 1.000000 0.000000
-0.051955 -0.112125 0.444198 0.500000 0.500000 0.000000
-0.200209 0.135898 0.345759 0.000000 0.000000 1.000000
0.122103 0.135898 -0.481141 0.000000 0.000000 1.000000
-0.086586 0.135898 0.228672 0.000000 0.000000 1.000000
-0.031730 -0.094213 0.203579 0.500000 0.500000 0.000000
-0.137726 -0.154527 0.388331 0.600000 0.000000 0.300000
-0.300504 0.115673 0.206777 0.000000 0.000000 1.000000
-0.621635 -0.097917 -0.616434 0.300000 0.000000 0.600000
-0.641860 -0.280686 0.329521 0.600000 0.300000 0.000000
-0.051955 -0.072384 0.219425 0.500000 0.500000 0.000000
-0.250587 0.115673 -0.437577 0.000000 0.000000 1.000000
-0.051955 -0.095714 0.541876 0.500000 0.500000 0.000000
0.605368 -0.031718 -0.403351 0.500000 0.000000 0.500000
0.373914 0.098588 0.388331 0.600000 0.000000 0.300000
0.098861 -0.062269 0.119497 0.800000 0.200000 0.500000
0.439394 0.048522 0.099272 0.800000 0.200000 0.500000
0.054377 -0.161290 0.368105 0.600000 0.000000 0.300000
-0.431170 0.135898 -0.176410 0.000000 0.000000 1.000000
-0.428955 -0.095818 -0.602710 0.300000 0.600000 0.000000
0.652560 -0.042903 -0.302196 0.600000 0.000000 0.300000
-0.621635 0.064087 -0.468128 0.300000 0.000000 0.600000
0.652560 -0.025052 0.299147 0.600000 0.000000 0.300000
-0.549632 -0.118707 0.599508 0.500000 0.000000 0.500000
0.049307 -0.051709 0.021158 0.000000 0.000000 1.000000
0.672786 -0.124176 -0.018012 0.500000 0.000000 0.500000
-0.595293 0.115673 -0.247476 0.000000 0.000000 1.000000
-0.601410 -0.002116 -0.447838 0.300000 0.000000 0.600000
-0.631748 0.144626 0.243290 0.800000 0.200000 0.500000
0.483761 -0.095111 0.134792 0.000000 0.000000 1.000000
-0.566154 0.135898 -0.229494 0.000000 0.000000 1.000000
-0.560959 0.057384 0.372050 0.500000 0.000000 0.500000
-0.063743 -0.048769 0.658839 0.000000 1.000000 0.000000
-0.621635 -0.082148 0.067225 0.300000 0.000000 0.600000
0.312479 0.135898 0.098584 0.000000 0.000000 1.000000
-0.601410 -0.066356 -0.398921 0.300000 0.000000 0.600000
0.547524 0.005190 0.658839 0.600000 0.300000 0.000000
0.030160 0.013897 0.057504 0.000000 0.000000 1.000000
0.670545 -0.323125 -0.640920 0.600000 0.000000 0.300000
0.106127 -0.143364 -0.622936 0.000000 1.000000 0.000000
-0.031730 -0.045497 0.321196 0.500000 0.500000 0.000000
-0.174867 -0.019730 0.638614 0.000000 1.000000 0.000000
-0.375212 0.135898 -0.553786 0.000000 0.000000 1.000000
-0.271425 0.071841 0.099272 0.000000 0.500000 0.500000
-0.424969 -0.167321 -0.622936 0.000000 1.000000 0.000000
-0.081445 0.080837 -0.602710 0.300000 0.600000 0.000000
-0.503928 0.115673 0.036129 0.000000 0.000000 1.000000
0.049307 -0.005534 -0.090691 0.000000 0.000000 1.000000
-0.214439 0.115673 -0.265400 0.000000 0.000000 1.000000
0.029082 -0.013312 -0.265242 0.000000 0.000000 1.000000
0.421118 0.135898 0.027627 0.000000 0.000000 1.000000
-0.051955 0.016775 0.483023 0.500000 0.500000 0.000000
0.430490 0.135898 -0.479474 0.000000 0.000000 1.000000
0.083016 -0.086994 0.488142 0.300000 0.000000 0.600000
-0.031876 0.104124 -0.602710 0.300000 0.600000 0.000000
0.083016 0.009127 0.144230 0.300000 0.000000 0.600000
0.592020 0.014107 0.149464 0.600000 0.000000 0.300000
-0.059769 -0.105223 0.167330 0.300000 0.600000 0.000000
0.571795 0.000768 0.525038 0.600000 0.000000 0.300000
0.001843 -0.011667 0.293849 1.000000 0.000000 0.000000
0.625593 -0.000441 -0.440274 0.500000 0.000000 0.500000
0.062791 -0.030714 0.279359 0.300000 0.000000 0.600000
0.001843 0.005715 0.114760 1.000000 0.000000 0.000000
0.334655 0.115673 -0.320568 0.000000 0.000000 1.000000
0.382475 0.005934 0.618388 0.600000 0.300000 0.000000
0.633770 -0.000703 -0.643161 0.600000 0.000000 0.300000
-0.038115 -0.108517 -0.622936 0.300000 0.600000 0.000000
-0.331070 -0.119107 -0.602710 0.300000 0.600000 0.000000
-0.506446 0.135898 -0.570482 0.000000 0.000000 1.000000
0.204279 0.121359 0.388331 0.600000 0.000000 0.300000
-0.194985 -0.100792 -0.602710 0.300000 0.600000 0.000000
0.320809 -0.095111 0.235452 0.000000 0.000000 1.000000
-0.586979 0.025583 -0.643161 0.300000 0.000000 0.600000
-0.454907 -0.028805 -0.622936 0.300000 0.600000 0.000000
-0.621635 -0.040926 0.042461 0.300000 0.000000 0.600000
-0.621635 -0.074637 0.187459 0.300000 0.000000 0.600000
0.672786 0.092290 -0.568040 0.300000 0.000000 0.600000
0.535515 0.126382 0.378218 0.600000 0.000000 0.300000
0.229719 -0.049304 0.119497 0.800000 0.200000 0.500000
0.220396 0.046085 -0.622936 0.300000 0.600000 0.000000
0.641860 -0.344474 0.368105 0.800000 0.200000 0.500000
-0.116861 -0.021586 0.658839 0.000000 1.000000 0.000000
-0.641860 -0.142390 0.273960 0.000000 1.000000 0.000000
-0.601410 -0.134897 -0.042962 0.300000 0.000000 0.600000
0.584481 0.135898 0.205402 0.000000 0.000000 1.000000
0.605368 -0.008098 -0.543593 0.500000 0.000000 0.500000
-0.515514 -0.079582 -0.622936 0.300000 0.600000 0.000000
-0.252067 0.115673 -0.539914 0.000000 0.000000 1.000000
-0.077209 -0.002568 0.638614 0.000000 1.000000 0.000000
0.468963 0.115673 0.138719 0.000000 0.000000 1.000000
0.672786 0.014321 -0.578689 0.600000 0.000000 0.300000
0.652560 -0.030661 -0.363597 0.600000 0.000000 0.300000
-0.268561 0.115673 -0.566303 0.000000 0.000000 1.000000
-0.540734 -0.039386 0.144302 0.500000 0.000000 0.500000
-0.439400 -0.110636 0.638614 0.000000 1.000000 0.000000
0.579117 -0.025052 -0.622936 0.300000 0.600000 0.000000
0.156216 -0.012584 0.638614 0.600000 0.300000 0.000000
-0.284588 0.115673 -0.396666 0.000000 0.000000 1.000000
-0.560959 -0.093297 0.333090 0.500000 0.000000 0.500000
0.028293 -0.146926 0.368105 0.600000 0.000000 0.300000
0.114558 -0.105223 0.375680 0.000000 0.000000 1.000000
0.422128 -0.073682 -0.622936 0.300000 0.600000 0.000000
-0.621635 0.093447 -0.384258 0.800000 0.200000 0.500000
0.589152 0.078525 0.260518 0.600000 0.000000 0.300000
-0.143580 0.058266 -0.622936 0.300000 0.600000 0.000000
0.226125 -0.154948 -0.622936 0.000000 1.000000 0.000000
0.116232 -0.118707 -0.637125 0.000000 1.000000 0.000000
-0.430149 0.135898 0.344798 0.000000 0.000000 1.000000
0.487268 0.115673 -0.481492 0.000000 0.000000 1.000000
-0.093152 0.135898 0.338823 0.000000 0.000000 1.000000
-0.310170 -0.059616 0.119497 0.000000 0.500000 0.500000
0.672786 -0.120382 -0.044248 0.500000 0.000000 0.500000
0.048201 -0.053793 -0.056783 0.000000 0.000000 1.000000
-0.641860 0.142236 -0.357041 0.800000 0.200000 0.500000
-0.460976 -0.184092 0.368105 0.600000 0.000000 0.300000
-0.601410 0.086921 -0.214336 0.300000 0.000000 0.600000
-0.641860 -0.014573 0.349809 0.600000 0.300000 0.000000
0.652560 -0.090403 0.218216 0.600000 0.000000 0.300000
0.571795 0.044587 0.291380 0.600000 0.000000 0.300000
0.379627 -0.105223 0.515229 0.000000 0.000000 1.000000
-0.584131 -0.232978 -0.643161 0.300000 0.000000 0.600000
-0.172715 -0.042180 0.658839 0.000000 1.000000 0.000000
-0.621635 -0.098292 0.322204 0.600000 0.300000 0.000000
0.117594 0.115673 -0.323769 0.000000 0.000000 1.000000
-0.621635 -0.065921 -0.174326 0.300000 0.000000 0.600000
0.058811 0.135898 -0.366428 0.000000 0.000000 1.000000
0.042800 0.013897 -0.410937 0.000000 0.000000 1.000000
-0.574443 -0.095991 -0.642241 0.300000 0.000000 0.600000
-0.137160 -0.138863 -0.613087 0.300000 0.600000 0.000000
-0.032793 0.115673 -0.402772 0.000000 0.000000 1.000000
0.652560 -0.142514 -0.183201 0.500000 0.000000 0.500000
0.001843 -0.002274 0.257181 1.000000 0.000000 0.000000
0.486289 -0.153150 -0.622936 0.000000 1.000000 0.000000
-0.621635 0.033313 -0.403025 0.300000 0.000000 0.600000
-0.598749 0.064882 -0.622936 0.300000 0.000000 0.600000
-0.621635 0.091200 0.054691 0.300000 0.000000 0.600000
-0.194206 0.031831 0.099272 0.000000 0.500000 0.500000
0.151179 0.115673 -0.036452 0.000000 0.000000 1.000000
0.001843 -0.047429 -0.060301 1.000000 0.000000 0.000000
-0.022074 0.135898 -0.006166 0.000000 0.000000 1.000000
-0.080646 0.100212 -0.643161 0.600000 0.300000 0.000000
0.632335 -0.068641 -0.329503 0.600000 0.000000 0.300000
0.034400 0.115673 -0.332139 0.000000 0.000000 1.000000
0.339904 0.135898 -0.090314 0.000000 0.000000 1.000000
0.062791 -0.105802 0.585547 0.300000 0.000000 0.600000
-0.621635 -0.051095 0.165272 0.300000 0.000000 0.600000
0.630648 0.082484 -0.602710 0.300000 0.600000 0.000000
0.652560 -0.078884 -0.035914 0.600000 0.000000 0.300000
-0.004578 -0.053793 0.157022 1.000000 0.000000 0.000000
-0.349919 0.115673 0.233509 0.000000 0.000000 1.000000
-0.163662 0.115673 -0.166723 0.000000 0.000000 1.000000
-0.322587 0.115673 0.248993 0.000000 0.000000 1.000000
-0.539198 -0.097961 0.099272 0.000000 0.500000 0.500000
-0.641442 -0.111421 -0.575743 0.300000 0.000000 0.600000
0.264511 0.068464 0.638614 0.600000 0.300000 0.000000
-0.246766 0.115673 -0.084940 0.000000 0.000000 1.000000
0.571795 -0.088095 0.446514 0.600000 0.000000 0.300000
-0.574443 0.008375 0.101575 0.500000 0.500000 0.000000
-0.506827 0.135898 -0.331960 0.000000 0.000000 1.000000
-0.252831 0.101633 -0.643161 0.600000 0.300000 0.000000
0.652560 -0.156610 0.123777 0.500000 0.000000 0.500000
0.151265 0.055195 -0.622936 0.300000 0.600000 0.000000
-0.595946 -0.371543 0.388184 0.600000 0.300000 0.000000
-0.164664 0.089468 -0.643161 0.600000 0.300000 0.000000
-0.442567 0.077239 0.119497 0.000000 0.500000 0.500000
-0.446079 0.115673 0.312036 0.000000 0.000000 1.000000
-0.574443 -0.021605 -0.301569 0.500000 0.500000 0.000000
-0.175135 0.115673 -0.053271 0.000000 0.000000 1.000000
-0.166874 0.032343 0.638614 0.000000 1.000000 0.000000
0.131922 0.135898 -0.363399 0.000000 0.000000 1.000000
-0.601410 -0.126252 -0.546618 0.300000 0.000000 0.600000
-0.540734 -0.058654 0.342109 0.500000 0.000000 0.500000
-0.621635 0.092327 -0.347154 0.300000 0.000000 0.600000
-0.641860 -0.111539 -0.605303 0.300000 0.000000 0.600000
0.219450 0.135898 -0.216371 0.000000 0.000000 1.000000
0.662673 0.135281 -0.624312 0.000000 0.000000 1.000000
-0.124050 -0.031216 -0.622936 0.300000 0.600000 0.000000
0.586775 0.135898 -0.001663 0.000000 0.000000 1.000000
-0.545643 0.135898 -0.158770 0.000000 0.000000 1.000000
0.632335 -0.119117 -0.363087 0.600000 0.000000 0.300000
0.499791 0.135898 -0.523015 0.000000 0.000000 1.000000
-0.601410 0.051263 0.160093 0.300000 0.000000 0.600000
-0.354954 0.070107 0.099272 0.000000 0.500000 0.500000
-0.509025 0.115673 0.298702 0.000000 0.000000 1.000000
-0.222458 0.115673 0.227362 0.000000 0.000000 1.000000
0.571795 -0.076941 0.167524 0.600000 0.000000 0.300000
0.524839 0.115673 0.294771 0.000000 0.000000 1.000000
0.571795 0.024289 0.299331 0.600000 0.000000 0.300000
-0.119598 -0.134947 -0.643161 0.000000 1.000000 0.000000
-0.621635 0.072795 -0.178826 0.300000 0.000000 0.600000
-0.428912 0.115673 -0.476875 0.000000 0.000000 1.000000
-0.215456 0.115673 0.337662 0.000000 0.000000 1.000000
-0.505159 0.115673 -0.117322 0.000000 0.000000 1.000000
0.409094 -0.143651 0.388331 0.600000 0.000000 0.300000
0.034398 -0.053793 -0.258714 0.000000 0.000000 1.000000
0.672786 -0.100161 -0.098939 0.000000 0.500000 0.500000
0.325229 0.115673 -0.199368 0.000000 0.000000 1.000000
-0.051955 0.009431 0.298963 0.500000 0.500000 0.000000
-0.601410 -0.112515 -0.167610 0.300000 0.000000 0.600000
-0.621635 0.082999 -0.324560 0.800000 0.200000 0.500000
-0.242771 0.115673 -0.517033 0.000000 0.000000 1.000000
0.459619 -0.046926 0.119497 0.800000 0.200000 0.500000
0.062791 0.019509 0.288508 0.300000 0.000000 0.600000
-0.540734 -0.107245 0.467675 0.500000 0.000000 0.500000
-0.331068 0.014599 0.638614 0.000000 1.000000 0.000000
0.609314 0.013897 0.328332 0.500000 0.000000 0.500000
-0.594668 -0.002577 0.004053 0.500000 0.500000 0.000000
0.209977 -0.154768 0.388331 0.600000 0.000000 0.300000
0.080660 0.135898 -0.619941 0.000000 0.000000 1.000000
0.165329 0.135898 -0.225294 0.000000 0.000000 1.000000
-0.093904 -0.022646 -0.622936 0.300000 0.600000 0.000000
-0.601873 0.115673 0.075653 0.300000 0.000000 0.600000
0.363222 -0.059899 -0.622936 0.300000 0.600000 0.000000
0.478619 0.032932 0.658839 0.600000 0.300000 0.000000
0.438540 0.133631 -0.633048 0.600000 0.300000 0.000000
-0.021910 0.135898 0.213647 0.000000 0.000000 1.000000
-0.601410 0.036769 0.268114 0.300000 0.000000 0.600000
0.603263 0.115673 0.281032 0.000000 0.000000 1.000000
0.174713 0.135898 -0.487194 0.000000 0.000000 1.000000
-0.088112 0.135898 0.054524 0.000000 0.000000 1.000000
-0.319722 0.078525 0.370118 0.600000 0.000000 0.300000
-0.621635 -0.006920 -0.164267 0.300000 0.000000 0.600000
0.276755 -0.105223 0.360003 0.000000 0.000000 1.000000
0.652560 0.108533 -0.438929 0.300000 0.000000 0.600000
-0.045269 -0.133264 -0.622936 0.000000 1.000000 0.000000
0.632335 0.054839 -0.186668 0.600000 0.000000 0.300000
0.513161 0.115673 -0.304470 0.000000 0.000000 1.000000
0.000141 -0.182613 -0.622936 0.000000 1.000000 0.000000
0.652560 -0.078697 -0.248733 0.600000 0.000000 0.300000
0.429117 0.063510 0.119497 0.800000 0.200000 0.500000
-0.248270 0.135898 -0.316367 0.000000 0.000000 1.000000
0.238894 -0.095742 0.109384 0.000000 0.000000 1.000000
0.652560 0.061075 -0.142591 0.600000 0.000000 0.300000
0.672786 -0.136943 -0.364614 0.500000 0.000000 0.500000
-0.621635 -0.068623 -0.350899 0.300000 0.000000 0.600000
0.082666 0.078525 -0.639964 0.600000 0.300000 0.000000
-0.359343 -0.031911 -0.602710 0.300000 0.600000 0.000000
-0.177122 0.115673 -0.146560 0.000000 0.000000 1.000000
0.111111 -0.096785 0.119497 0.800000 0.200000 0.500000
0.026157 0.135898 -0.523282 0.000000 0.000000 1.000000
-0.621635 -0.137185 -0.501402 0.300000 0.000000 0.600000
-0.601410 0.062335 -0.326623 0.300000 0.000000 0.600000
0.349262 0.027764 -0.622936 0.300000 0.600000 0.000000
-0.517548 -0.096418 0.658839 0.000000 1.000000 0.000000
-0.567869 -0.005361 -0.622936 0.300000 0.600000 0.000000
0.432468 -0.105223 0.544545 0.000000 0.000000 1.000000
-0.106088 -0.082847 -0.622936 0.300000 0.600000 0.000000
-0.514474 0.030209 0.099272 0.000000 0.500000 0.500000
0.209943 0.022745 -0.622936 0.300000 0.600000 0.000000
-0.327008 0.032037 -0.602710 0.300000 0.600000 0.000000
0.632335 0.066837 0.033544 0.600000 0.000000 0.300000
-0.578693 0.135898 -0.155733 0.000000 0.000000 1.000000
0.575803 0.135898 -0.082891 0.000000 0.000000 1.000000
0.239938 0.135898 -0.062012 0.000000 0.000000 1.000000
0.652640 -0.219928 0.368185 0.800000 0.200000 0.500000
-0.621635 0.098290 -0.162612 0.300000 0.000000 0.600000
0.130481 -0.095111 0.522324 0.000000 0.000000 1.000000
0.292852 -0.001567 0.658839 0.600000 0.300000 0.000000
0.379092 0.135898 0.098788 0.000000 0.000000 1.000000
0.663420 0.068906 0.378965 0.800000 0.200000 0.500000
0.652560 0.091488 -0.424026 0.600000 0.000000 0.300000
0.062791 0.065564 0.586184 0.300000 0.000000 0.600000
-0.026573 0.115673 -0.092762 0.000000 0.000000 1.000000
-0.621635 -0.033284 -0.265084 0.300000 0.000000 0.600000
0.063881 -0.012169 0.658839 0.600000 0.300000 0.000000
-0.641860 -0.077628 0.323114 0.600000 0.300000 0.000000
-0.437127 0.115673 0.041883 0.000000 0.000000 1.000000
0.103355 0.115673 0.066462 0.000000 0.000000 1.000000
0.652560 0.065043 -0.218488 0.600000 0.000000 0.300000
0.375398 0.021544 -0.602710 0.300000 0.600000 0.000000
0.553875 -0.065025 0.658839 0.600000 0.300000 0.000000
-0.586698 0.125433 0.378218 0.600000 0.300000 0.000000
-0.335413 0.115673 0.277897 0.000000 0.000000 1.000000
-0.011141 0.115673 0.076232 0.000000 0.000000 1.000000
-0.533456 0.115673 -0.594171 0.000000 0.000000 1.000000
-0.051955 -0.010384 0.209933 0.500000 0.500000 0.000000
-0.615566 0.121072 -0.633048 0.000000 0.000000 1.000000
0.645163 -0.048116 0.388331 0.800000 0.200000 0.500000
0.212293 0.066655 0.638614 0.600000 0.300000 0.000000
-0.621635 0.103838 0.008538 0.800000 0.200000 0.500000
0.376616 -0.095111 0.487823 0.000000 0.000000 1.000000
-0.641860 -0.122838 -0.336857 0.000000 1.000000 0.000000
0.069283 -0.033556 0.638614 0.600000 0.300000 0.000000
0.620832 0.135898 0.058125 0.000000 0.000000 1.000000
0.370099 0.117684 -0.633048 0.600000 0.300000 0.000000
-0.087284 -0.082579 0.618388 0.000000 1.000000 0.000000
0.592020 -0.037624 0.448547 0.600000 0.000000 0.300000
0.126171 -0.095111 0.343665 0.000000 0.000000 1.000000
0.027317 -0.118707 -0.642872 0.500000 0.500000 0.000000
-0.601410 -0.094828 -0.028212 0.300000 0.000000 0.600000
0.062791 -0.116133 0.113189 0.300000 0.000000 0.600000
-0.018382 -0.006120 -0.239716 1.000000 0.000000 0.000000
-0.439875 0.115673 0.354728 0.000000 0.000000 1.000000
-0.621635 0.078621 0.095520 0.300000 0.000000 0.600000
0.449015 -0.053348 -0.622936 0.300000 0.600000 0.000000
-0.421461 0.096688 -0.622936 0.300000 0.600000 0.000000
-0.135044 0.037442 0.658839 0.000000 1.000000 0.000000
-0.529527 0.135898 -0.087467 0.000000 0.000000 1.000000
0.007770 0.115673 -0.332390 0.000000 0.000000 1.000000
0.652560 -0.044181 -0.038145 0.600000 0.000000 0.300000
0.001843 -0.029034 -0.554807 1.000000 0.000000 0.000000
-0.246554 0.135898 -0.211846 0.000000 0.000000 1.000000
0.625103 0.115673 0.301876 0.000000 0.000000 1.000000
-0.621635 0.046800 0.308884 0.300000 0.000000 0.600000
-0.380738 -0.095111 0.582687 0.300000 0.600000 0.000000
-0.490461 -0.016323 0.638614 0.000000 1.000000 0.000000
0.172666 -0.105223 0.260590 0.000000 0.000000 1.000000
-0.051598 0.078525 0.508648 0.500000 0.500000 0.000000
0.001843 -0.036398 -0.211793 1.000000 0.000000 0.000000
0.413414 0.115673 0.132260 0.000000 0.000000 1.000000
-0.296199 -0.186125 -0.642750 0.000000 1.000000 0.000000
-0.322903 0.125925 -0.633048 0.600000 0.300000 0.000000
0.652560 0.015088 0.034922 0.600000 0.000000 0.300000
-0.621635 -0.136192 -0.301346 0.300000 0.000000 0.600000
0.397157 0.135898 -0.458452 0.000000 0.000000 1.000000
-0.256477 0.115673 0.326007 0.000000 0.000000 1.000000
0.632335 0.112880 0.222935 0.600000 0.000000 0.300000
0.594433 0.091646 -0.643161 0.600000 0.300000 0.000000
0.652688 -0.118707 0.299633 0.500000 0.000000 0.500000
0.672786 -0.173849 0.184196 0.500000 0.000000 0.500000
0.031662 0.135898 -0.381299 0.000000 0.000000 1.000000
-0.641860 0.101931 0.001651 0.800000 0.200000 0.500000
0.106784 0.135898 -0.079070 0.000000 0.000000 1.000000
0.544206 -0.105223 0.547162 0.000000 0.000000 1.000000
-0.221822 0.115673 -0.146963 0.000000 0.000000 1.000000
-0.332471 0.135898 -0.208024 0.000000 0.000000 1.000000
-0.621635 0.092174 -0.418370 0.800000 0.200000 0.500000
-0.621635 0.053146 -0.606386 0.300000 0.000000 0.600000
-0.517089 0.135898 -0.501200 0.000000 0.000000 1.000000
0.260686 0.026933 -0.602710 0.300000 0.600000 0.000000
0.331352 0.135898 0.123794 0.000000 0.000000 1.000000
0.463266 0.115673 -0.252313 0.000000 0.000000 1.000000
-0.540734 -0.083282 0.158480 0.500000 0.000000 0.500000
0.569586 -0.116140 0.618388 0.600000 0.300000 0.000000
-0.169905 0.110082 -0.643161 0.600000 0.300000 0.000000
-0.315992 0.135898 -0.291913 0.000000 0.000000 1.000000
0.580490 -0.118707 0.135259 0.600000 0.000000 0.300000
0.121962 0.135898 0.120249 0.000000 0.000000 1.000000
-0.010650 -0.053793 0.255067 1.000000 0.000000 0.000000
0.164368 0.135898 -0.152425 0.000000 0.000000 1.000000
0.564217 0.115673 -0.548445 0.000000 0.000000 1.000000
0.603785 0.135898 -0.304980 0.000000 0.000000 1.000000
0.592020 -0.067227 0.127364 0.600000 0.000000 0.300000
-0.627551 0.135898 0.366879 0.000000 0.000000 1.000000
-0.369075 -0.100152 0.109384 0.300000 0.600000 0.000000
-0.315084 -0.112579 -0.622936 0.300000 0.600000 0.000000
0.472279 0.060920 0.618388 0.600000 0.300000 0.000000
-0.250407 0.056794 -0.622936 0.300000 0.600000 0.000000
0.291723 0.019722 0.658839 0.600000 0.300000 0.000000
-0.361113 0.115673 0.090466 0.000000 0.000000 1.000000
-0.324094 0.135898 -0.414461 0.000000 0.000000 1.000000
-0.282318 0.135898 -0.599958 0.000000 0.000000 1.000000
-0.018246 -0.024229 0.646673 0.000000 1.000000 0.000000
0.115378 -0.008738 -0.602710 0.300000 0.600000 0.000000
0.062421 0.115673 0.029625 0.000000 0.000000 1.000000
0.471825 0.135898 -0.376968 0.000000 0.000000 1.000000
-0.031730 -0.048603 0.167462 0.500000 0.500000 0.000000
0.669826 0.078525 -0.380132 0.300000 0.000000 0.600000
