ply
format ascii 1.0
element vertex 1287
property float x
property float y
property float z
property uchar red
property uchar green
property uchar blue
end_header
0.528997 0.042059 -0.687842 153 0 76
-0.695507 0.014098 -0.202549 153 0 76
0.429559 0.064376 -0.523431 153 0 76
0.127498 0.014098 0.236244 153 0 76
-0.195168 0.024038 -0.687842 153 0 76
0.534736 -0.324063 0.586445 153 0 76
-0.554046 -0.153839 -0.395170 153 0 76
-0.577566 -0.298257 -0.619851 153 0 76
0.162714 0.014098 -0.682557 153 0 76
-0.696222 0.014098 0.116676 153 0 76
-0.455440 0.014098 -0.024246 153 0 76
0.213570 0.064376 0.098403 153 0 76
0.491966 0.064376 0.627874 153 0 76
0.187135 0.014098 0.508248 153 0 76
-0.697862 0.016554 0.444033 153 0 76
-0.344592 0.014098 0.516471 153 0 76
-0.077663 0.064376 -0.346292 153 0 76
-0.531953 0.014098 0.297609 153 0 76
0.023690 0.064376 0.564623 153 0 76
-0.697862 0.017833 -0.508477 153 0 76
-0.281349 0.014098 0.171249 153 0 76
0.664037 0.048570 -0.319708 153 0 76
-0.286203 0.014098 -0.135968 153 0 76
-0.555126 -0.014730 0.614892 0 0 255
0.402918 0.014098 0.415235 153 0 76
0.120207 0.064376 -0.316628 153 0 76
0.611678 -0.188229 0.644640 255 0 0
-0.259290 0.064376 0.635617 153 0 76
0.593172 -0.071924 -0.492571 0 255 0
-0.141186 0.064376 0.086512 153 0 76
-0.641908 -0.195501 -0.524063 0 127 127
-0.514832 -0.194260 0.636821 255 0 0
-0.483631 0.014098 -0.679967 153 0 76
0.049995 0.014098 -0.053573 153 0 76
0.571505 -0.290236 -0.612816 0 255 0
-0.081002 0.014098 0.378454 153 0 76
0.498963 -0.194181 -0.496206 76 0 153
0.583410 -0.037540 0.580115 204 51 127
0.282945 0.018483 0.674057 153 0 76
0.081869 0.064376 -0.577103 153 0 76
-0.271121 0.064376 -0.416606 153 0 76
0.384070 0.064376 -0.387094 153 0 76
-0.557812 0.014098 -0.235117 153 0 76
-0.005401 0.064376 0.249655 153 0 76
-0.564273 -0.263286 0.754238 76 0 153
-0.114833 0.064376 -0.212533 153 0 76
0.663711 0.064376 0.532830 153 0 76
-0.592575 -0.069156 -0.497469 153 0 76
0.541567 0.064376 -0.245532 153 0 76
0.663124 0.019976 -0.687842 153 0 76
0.533267 0.014098 -0.088485 153 0 76
-0.228194 0.064376 0.328507 153 0 76
-0.613544 -0.266960 0.530654 76 0 153
-0.040691 0.014098 -0.555252 153 0 76
0.663067 0.014098 0.375689 153 0 76
0.191481 0.064376 0.369020 153 0 76
-0.511998 -0.225514 -0.506751 127 0 127
0.481660 -0.206335 0.623830 0 0 255
0.628484 -0.218274 -0.488561 153 76 0
0.335911 0.064376 -0.064738 153 0 76
0.337341 0.064376 0.188209 153 0 76
-0.644235 -0.178115 0.624342 0 255 0
-0.102848 0.014098 0.544149 153 0 76
0.612959 0.064376 -0.439087 153 0 76
-0.365708 0.014098 -0.283269 153 0 76
0.571580 0.014098 0.157837 153 0 76
0.182955 0.064376 -0.205276 153 0 76
-0.381325 0.014098 0.079221 153 0 76
0.536045 0.014098 0.322822 153 0 76
0.297499 0.014098 -0.185065 153 0 76
0.186603 0.014098 -0.410574 153 0 76
-0.475790 0.064376 -0.320483 153 0 76
0.324379 0.014098 -0.573852 153 0 76
-0.439906 0.014098 -0.529047 153 0 76
0.664037 0.020771 -0.038992 153 0 76
0.546372 0.010652 -0.569856 255 0 0
-0.601201 0.014098 0.193026 153 0 76
-0.604949 0.064376 0.381052 153 0 76
0.470691 0.014098 0.516173 153 0 76
-0.515479 0.064376 -0.435267 153 0 76
0.394967 0.014098 -0.266119 153 0 76
-0.399984 0.014098 0.199391 153 0 76
-0.267940 0.014098 -0.530374 153 0 76
0.281589 0.014098 0.433557 153 0 76
-0.601831 0.064376 0.537061 153 0 76
0.457747 0.064376 -0.010284 153 0 76
-0.586375 0.014098 0.069016 153 0 76
-0.442827 0.064376 0.572391 153 0 76
0.152166 0.064376 -0.002746 153 0 76
0.663213 0.014098 0.083999 153 0 76
0.459510 0.064376 0.109641 153 0 76
-0.169111 0.014098 -0.399001 153 0 76
0.560957 -0.169488 0.776923 153 0 76
-0.411578 0.014098 0.421038 153 0 76
-0.586047 0.064376 -0.672927 153 0 76
-0.184480 0.064376 -0.121903 153 0 76
-0.045810 0.014098 0.150055 153 0 76
0.018310 0.014098 -0.306561 153 0 76
-0.537620 0.014098 -0.122880 153 0 76
0.297802 0.014098 -0.441401 153 0 76
-0.691966 0.064376 -0.303968 153 0 76
0.395406 0.014098 0.662534 153 0 76
0.236536 0.014098 0.198515 153 0 76
0.024901 0.014098 0.665145 153 0 76
0.434128 0.014098 -0.623677 153 0 76
-0.308895 0.064376 0.422728 153 0 76
-0.579352 -0.032006 -0.603625 0 255 0
-0.039283 0.064376 0.468562 153 0 76
-0.112870 0.064376 -0.626542 153 0 76
0.269011 0.014098 0.014534 153 0 76
0.391615 0.064376 0.317955 153 0 76
-0.365944 0.064376 -0.059905 153 0 76
0.219207 0.064376 0.599249 153 0 76
0.240645 0.064376 -0.626722 153 0 76
-0.502642 0.064376 0.665934 153 0 76
-0.062450 0.014098 -0.447628 153 0 76
0.123569 0.014098 0.126824 153 0 76
0.559041 -0.275922 -0.385398 0 255 0
-0.350208 0.064376 -0.486925 153 0 76
0.111841 0.064376 -0.127367 153 0 76
-0.054884 0.014098 0.045174 153 0 76
-0.226959 0.014098 0.545812 153 0 76
-0.695148 0.014098 0.011242 153 0 76
-0.611342 -0.179779 -0.639374 153 0 76
-0.611342 -0.241176 -0.395370 153 0 76
0.561532 0.064376 0.546583 153 0 76
-0.613544 -0.085953 0.661158 76 0 153
-0.204782 0.014098 -0.028365 153 0 76
0.083783 0.014098 0.498335 153 0 76
-0.611567 0.064376 0.665614 153 0 76
-0.051189 0.014098 -0.146936 153 0 76
-0.697862 0.024144 -0.091001 153 0 76
-0.614519 0.064376 -0.473802 153 0 76
0.522806 -0.115270 0.602443 153 0 76
0.578201 -0.246627 0.536228 153 0 76
-0.668431 0.064376 -0.592491 153 0 76
0.613003 -0.077310 -0.590584 127 127 0
0.126872 0.064376 -0.473256 153 0 76
-0.302253 0.029895 -0.687842 153 0 76
-0.697862 0.054167 -0.415560 153 0 76
-0.478857 0.064376 0.365052 153 0 76
-0.286972 0.064376 -0.222109 153 0 76
0.516569 0.064376 -0.478456 153 0 76
-0.618440 -0.055398 0.552843 153 76 0
-0.293350 0.064376 0.253415 153 0 76
0.047071 0.014098 0.313706 153 0 76
0.127717 0.064376 0.568449 153 0 76
0.513858 -0.325229 0.681953 153 0 76
-0.622164 0.064376 -0.165374 153 0 76
0.163751 0.014098 -0.571136 153 0 76
-0.224888 0.014098 0.093564 153 0 76
-0.220606 0.064376 -0.597091 153 0 76
-0.351573 0.064376 0.602102 153 0 76
-0.167850 0.064376 0.609271 153 0 76
-0.611342 -0.328124 -0.536056 153 0 76
0.202263 0.064376 0.274730 153 0 76
0.613003 -0.199084 -0.588381 127 127 0
0.518506 -0.087679 -0.551120 127 127 0
-0.524069 0.064376 0.018730 153 0 76
0.063070 0.064376 0.179228 153 0 76
0.466009 0.064376 -0.302336 153 0 76
-0.528822 -0.109332 0.590507 153 76 0
-0.479311 0.064376 0.238331 153 0 76
-0.137693 0.014098 -0.290262 153 0 76
0.083627 0.063077 -0.687842 153 0 76
0.478829 0.064376 0.376375 153 0 76
-0.179926 0.064376 0.179660 153 0 76
0.572338 0.056508 0.674057 153 0 76
0.528281 -0.107229 -0.422004 0 255 0
0.572444 0.064376 0.239840 153 0 76
-0.603768 -0.258351 0.658757 76 0 153
0.106397 0.014098 -0.210878 153 0 76
0.308617 0.064376 0.099716 153 0 76
-0.466572 0.064376 -0.605535 153 0 76
-0.023650 0.064376 -0.073348 153 0 76
0.431597 0.014098 -0.084444 153 0 76
-0.342427 0.064376 -0.354973 153 0 76
-0.464310 0.064376 -0.098155 153 0 76
0.497741 0.014098 -0.181975 153 0 76
-0.611342 -0.122775 -0.570059 204 51 127
0.408550 0.014098 0.163541 153 0 76
-0.390844 0.016482 -0.687842 153 0 76
0.606528 0.064376 -0.634463 153 0 76
0.427307 0.014098 -0.447289 153 0 76
-0.695309 0.064376 0.519654 153 0 76
0.188937 0.014098 -0.279810 153 0 76
0.572125 0.064376 -0.161886 153 0 76
-0.090782 0.064376 0.302094 153 0 76
0.528281 -0.222264 -0.575511 127 127 0
-0.175239 0.014098 0.389143 153 0 76
0.625164 0.014098 0.294002 153 0 76
0.146958 0.064376 0.447793 153 0 76
-0.380538 0.014098 -0.130913 153 0 76
-0.697862 0.015109 0.356009 153 0 76
-0.049170 0.014098 -0.242423 153 0 76
0.261168 0.064376 0.516365 153 0 76
0.134145 0.014098 0.324811 153 0 76
0.522806 -0.192751 0.700038 153 0 76
0.089869 0.014098 0.032655 153 0 76
0.584604 0.014098 -0.307870 153 0 76
-0.576397 0.014098 0.469156 153 0 76
-0.555947 -0.150763 -0.499264 153 0 76
0.375588 0.014098 0.247839 153 0 76
-0.573387 0.064376 -0.304150 153 0 76
0.315847 0.064376 0.370280 153 0 76
-0.697862 0.022513 0.202549 153 0 76
0.623826 0.014098 0.463988 153 0 76
0.626519 0.064376 -0.231471 153 0 76
-0.017002 0.064376 0.346483 153 0 76
0.000820 0.064376 -0.390701 153 0 76
0.308961 0.064376 -0.255074 153 0 76
-0.535113 -0.215245 0.555866 153 76 0
-0.218114 0.014098 -0.188372 153 0 76
0.602509 0.064376 -0.081207 153 0 76
-0.447630 0.064376 0.058205 153 0 76
-0.302259 0.064376 0.100964 153 0 76
0.005202 0.064376 -0.501058 153 0 76
0.568425 -0.260662 0.669542 153 0 76
-0.045674 0.014098 0.608313 153 0 76
-0.617303 0.014098 0.298276 153 0 76
0.360005 0.064376 -0.470993 153 0 76
-0.503559 0.014098 0.539920 153 0 76
0.499345 0.014098 0.053983 153 0 76
0.341830 0.064376 0.464962 153 0 76
-0.194619 0.017308 0.674057 153 0 76
-0.558149 -0.189805 0.709068 76 0 153
-0.472411 0.014098 -0.252897 153 0 76
0.169020 0.064376 0.183011 153 0 76
-0.123411 0.014098 0.455248 153 0 76
-0.536396 -0.213537 -0.586724 204 51 127
-0.218264 0.014098 0.235219 153 0 76
-0.629478 0.064376 0.123795 153 0 76
0.598386 0.064376 0.355383 153 0 76
0.042441 0.014098 -0.631999 153 0 76
-0.314261 0.014098 0.673764 153 0 76
0.662902 0.014098 -0.490309 153 0 76
0.206252 0.064376 -0.344007 153 0 76
-0.290952 0.014098 -0.047733 153 0 76
0.597752 -0.140339 0.569793 76 0 153
-0.549832 -0.308623 0.566241 76 0 153
0.409737 0.014098 0.572517 153 0 76
-0.287257 0.014098 0.356612 153 0 76
0.636699 0.064376 0.153499 153 0 76
-0.412523 0.064376 0.496007 153 0 76
-0.184759 0.064376 -0.335079 153 0 76
0.085541 0.064376 -0.393907 153 0 76
-0.138585 0.014098 0.021786 153 0 76
-0.256871 0.014098 0.461442 153 0 76
-0.086306 0.014098 -0.685086 153 0 76
-0.529046 -0.038208 -0.538123 204 51 127
-0.450812 0.014098 0.305231 153 0 76
-0.538348 0.014098 0.388564 153 0 76
-0.433320 0.064376 -0.463631 153 0 76
0.503254 -0.042865 0.567995 76 0 153
-0.527285 0.014098 -0.369164 153 0 76
0.455517 0.014098 0.314105 153 0 76
0.589215 0.064376 -0.527019 153 0 76
0.277521 0.064376 -0.120799 153 0 76
0.578201 -0.077226 0.650146 153 0 76
-0.625243 0.014098 -0.543346 153 0 76
-0.556331 0.014098 -0.043777 153 0 76
0.593452 -0.323719 -0.543048 0 255 0
-0.221492 0.014098 -0.465003 153 0 76
0.494727 0.064376 -0.608530 153 0 76
-0.098156 0.064376 0.183111 153 0 76
-0.284489 0.014098 -0.611731 153 0 76
0.015293 0.064376 -0.002438 153 0 76
-0.611342 -0.104331 -0.428842 153 0 76
0.253476 0.064376 -0.045223 153 0 76
0.254890 0.015913 -0.687842 153 0 76
0.662554 0.014098 -0.403117 153 0 76
0.643079 0.014098 0.596852 153 0 76
0.051828 0.014098 -0.139023 153 0 76
-0.360806 0.014098 -0.549629 153 0 76
0.467442 0.064376 0.455199 153 0 76
-0.124968 0.064376 -0.444404 153 0 76
-0.547945 0.064376 0.601202 153 0 76
-0.363663 0.014098 0.002275 153 0 76
-0.613544 -0.202851 0.766242 76 0 153
-0.264205 0.064376 -0.338114 153 0 76
-0.560072 0.064376 0.243922 153 0 76
0.603228 -0.138664 -0.532808 127 127 0
-0.120874 0.014098 -0.561855 153 0 76
-0.632162 0.064376 -0.243150 153 0 76
-0.417034 0.064376 0.138586 153 0 76
0.441149 0.058469 -0.687842 153 0 76
-0.613544 -0.188827 0.553207 153 76 0
0.061706 0.064376 -0.264767 153 0 76
0.355045 0.014098 -0.334970 153 0 76
0.493720 0.014098 0.159942 153 0 76
0.538057 -0.256722 -0.471393 0 255 0
0.371645 0.014098 -0.134019 153 0 76
-0.201340 0.064376 0.037433 153 0 76
0.383657 0.064376 -0.585988 153 0 76
-0.370880 0.064376 0.254456 153 0 76
-0.344636 0.064376 0.178954 153 0 76
0.076169 0.014098 -0.515700 153 0 76
-0.601567 -0.248940 -0.564430 153 0 76
0.582441 0.064376 -0.368004 153 0 76
0.282279 0.014098 0.596914 153 0 76
-0.513858 0.064376 -0.190699 153 0 76
0.083449 0.064376 0.631545 153 0 76
-0.134055 0.014098 -0.151316 153 0 76
0.126737 0.014098 -0.059213 153 0 76
-0.601567 -0.257555 -0.473695 153 0 76
0.280741 0.064376 0.240194 153 0 76
-0.006886 0.014098 0.403434 153 0 76
0.655681 0.064376 0.026704 153 0 76
-0.082190 0.064376 -0.515227 153 0 76
0.249508 0.064376 -0.406987 153 0 76
0.466909 0.064376 -0.405836 153 0 76
-0.330691 0.014098 -0.430208 153 0 76
0.379380 0.064376 -0.001552 153 0 76
-0.277798 0.064376 0.514536 153 0 76
-0.651711 0.064376 0.048217 153 0 76
-0.631371 0.014098 0.612255 153 0 76
-0.637846 0.014098 -0.639996 153 0 76
0.339930 0.064376 0.652427 153 0 76
0.202360 0.014098 0.424183 153 0 76
-0.631695 0.064376 0.459839 153 0 76
-0.559371 0.014098 -0.483392 153 0 76
-0.386001 0.064376 0.366452 153 0 76
0.078993 0.064376 0.263707 153 0 76
0.534266 0.014098 -0.013565 153 0 76
-0.594577 -0.313999 0.708019 76 0 153
0.462073 0.064376 -0.226079 153 0 76
0.205078 0.064376 0.673153 153 0 76
-0.369757 0.064376 -0.220910 153 0 76
0.164889 0.014098 -0.149003 153 0 76
-0.061817 0.014098 0.228757 153 0 76
0.182537 0.014098 -0.485507 153 0 76
0.533310 0.064376 0.101636 153 0 76
-0.673203 0.019545 0.674057 153 0 76
0.583677 -0.141564 -0.461304 0 255 0
-0.607860 0.014098 -0.099288 153 0 76
0.438760 0.014098 -0.349372 153 0 76
-0.548373 -0.090853 0.705741 76 0 153
-0.028738 0.014098 0.521845 153 0 76
0.351595 0.064376 -0.189168 153 0 76
-0.291291 0.014098 0.591808 153 0 76
-0.201419 0.064376 -0.239912 153 0 76
-0.520567 0.014098 -0.603332 153 0 76
-0.515945 0.014098 0.090978 153 0 76
-0.475026 0.014098 0.615628 153 0 76
-0.409273 0.014098 -0.608147 153 0 76
0.588571 0.014098 0.086232 153 0 76
-0.030340 0.064376 -0.607896 153 0 76
-0.034883 0.059355 0.674057 153 0 76
-0.601567 -0.186376 -0.443075 153 0 76
0.403143 0.064376 0.513489 153 0 76
-0.175856 0.064376 0.531376 153 0 76
-0.153952 0.014098 0.319252 153 0 76
0.256232 0.014098 0.365181 153 0 76
-0.067875 0.064376 -0.005978 153 0 76
-0.108891 0.064376 -0.104625 153 0 76
0.549573 0.014098 -0.437425 153 0 76
-0.171557 0.014098 -0.615518 153 0 76
0.301819 0.064376 -0.514424 153 0 76
0.383809 0.064376 0.117451 153 0 76
0.540060 0.012577 0.611795 76 153 0
-0.623320 -0.118061 0.588592 153 76 0
0.164799 0.014098 0.604726 153 0 76
0.110792 0.014098 0.407705 153 0 76
0.166544 0.064376 -0.622829 153 0 76
0.482687 0.014098 -0.536271 153 0 76
0.156893 0.014098 0.063142 153 0 76
0.075044 0.014098 0.569660 153 0 76
0.199991 0.014098 -0.021079 153 0 76
-0.248573 0.064376 -0.089765 153 0 76
-0.679140 0.014098 -0.356648 153 0 76
-0.488737 0.064376 -0.508869 153 0 76
0.657942 0.064376 0.426423 153 0 76
-0.428721 0.014098 -0.339364 153 0 76
-0.635480 0.014098 -0.293719 153 0 76
0.578201 -0.108901 0.733837 153 0 76
0.542342 0.014098 0.499907 153 0 76
0.509727 0.014098 0.416203 153 0 76
0.520844 0.014098 0.232727 153 0 76
0.484504 0.064376 -0.076326 153 0 76
0.522806 -0.209082 0.559731 153 0 76
-0.392066 0.014098 0.572736 153 0 76
0.024801 0.014098 0.143723 153 0 76
-0.337101 0.064376 -0.155539 153 0 76
-0.418766 0.064376 -0.278471 153 0 76
-0.558149 -0.134833 0.649316 76 0 153
-0.152328 0.064376 -0.025596 153 0 76
-0.094311 0.064376 0.616688 153 0 76
0.032730 0.014098 0.217981 153 0 76
-0.546172 -0.327282 -0.509682 153 0 76
0.664037 0.063534 0.325351 153 0 76
0.079341 0.014098 -0.343603 153 0 76
0.307843 0.064376 -0.347954 153 0 76
0.255081 0.014098 -0.240957 153 0 76
-0.577284 -0.200915 0.494516 76 0 153
0.276378 0.014098 0.136289 153 0 76
0.105167 0.064376 0.081752 153 0 76
0.583677 -0.219944 -0.424231 0 255 0
0.538057 -0.280057 -0.537184 0 255 0
-0.030050 0.014098 0.300032 153 0 76
-0.315184 0.064376 -0.285773 153 0 76
-0.164650 0.014098 0.128532 153 0 76
0.615562 0.014098 0.218648 153 0 76
-0.546172 -0.263009 -0.405386 153 0 76
-0.237202 0.064376 0.140377 153 0 76
0.650243 0.014098 -0.605232 153 0 76
-0.007754 0.064376 -0.266485 153 0 76
-0.640424 0.014098 -0.429936 153 0 76
0.311315 0.014098 -0.641942 153 0 76
-0.046992 0.064376 -0.194759 153 0 76
0.591747 -0.242827 0.604088 76 0 153
0.017233 0.014098 0.468347 153 0 76
-0.503779 0.014098 0.197500 153 0 76
0.249667 0.014098 -0.558857 153 0 76
0.310315 0.014098 0.516606 153 0 76
-0.634061 0.064376 0.227062 153 0 76
-0.096787 0.014098 0.102681 153 0 76
0.513030 -0.219463 0.762886 153 0 76
-0.473326 0.014098 -0.158380 153 0 76
-0.237867 0.014098 -0.383284 153 0 76
-0.236355 0.064376 0.396882 153 0 76
-0.175152 0.064376 0.277285 153 0 76
-0.560345 0.064376 0.122845 153 0 76
-0.127693 0.064376 0.383641 153 0 76
-0.656896 0.014098 0.546638 153 0 76
-0.330848 0.014098 0.225467 153 0 76
0.423909 0.064376 0.619054 153 0 76
-0.518036 0.064376 -0.261932 153 0 76
0.223451 0.064376 0.030645 153 0 76
0.528281 -0.155349 -0.554808 127 127 0
0.578201 -0.322101 0.641131 153 0 76
0.229569 0.014098 -0.177400 153 0 76
-0.457490 0.014098 0.484916 153 0 76
0.499269 0.014526 0.674057 153 0 76
0.498467 0.064376 0.290747 153 0 76
0.575630 -0.224776 -0.639483 0 255 0
-0.308050 0.014098 0.055539 153 0 76
0.314078 0.064376 0.022349 153 0 76
-0.271705 0.064376 -0.484943 153 0 76
0.599336 0.064376 0.609273 153 0 76
0.454967 0.064376 0.558852 153 0 76
0.615932 0.014098 0.531227 153 0 76
-0.618666 -0.242656 0.593904 153 76 0
-0.456996 0.064376 -0.385492 153 0 76
-0.690448 0.064376 -0.144805 153 0 76
-0.558979 0.022770 0.674057 153 0 76
-0.573309 0.064376 0.315736 153 0 76
-0.438641 0.064376 -0.682015 153 0 76
0.387192 0.014098 -0.676646 153 0 76
-0.189786 0.014098 -0.550602 153 0 76
0.614146 0.014098 0.009591 153 0 76
0.594768 0.014098 0.403179 153 0 76
0.087126 0.064376 -0.028404 153 0 76
-0.121761 0.014098 -0.491522 153 0 76
0.359535 0.014098 0.360930 153 0 76
0.254782 0.064376 0.319171 153 0 76
-0.528822 -0.050891 0.557438 153 76 0
-0.450127 0.014098 0.104052 153 0 76
-0.690196 0.064376 -0.032900 153 0 76
0.520301 0.014098 -0.284500 153 0 76
0.188818 0.014098 0.143375 153 0 76
-0.569667 -0.239600 -0.651244 153 0 76
0.596796 0.014098 -0.680458 153 0 76
0.093501 0.064376 0.342154 153 0 76
-0.048464 0.014098 -0.309728 153 0 76
-0.254052 0.014098 0.292850 153 0 76
0.386016 0.014098 -0.506342 153 0 76
-0.030277 0.014098 -0.028572 153 0 76
0.169279 0.064376 -0.093527 153 0 76
0.352221 0.014098 0.606103 153 0 76
-0.326684 0.014098 -0.204062 153 0 76
0.113878 0.014098 -0.426963 153 0 76
0.661945 0.014098 -0.256784 153 0 76
-0.482832 0.014098 -0.465829 153 0 76
0.426718 0.064376 0.048404 153 0 76
-0.247344 0.064376 -0.156406 153 0 76
0.528281 -0.083738 -0.485370 0 255 0
0.153654 0.014098 -0.343901 153 0 76
-0.613544 -0.314081 0.583566 76 0 153
0.577012 0.014098 -0.221189 153 0 76
-0.615232 0.014098 0.009527 153 0 76
-0.161923 0.014098 -0.085481 153 0 76
-0.255646 0.064376 -0.653073 153 0 76
-0.026633 0.064376 0.110330 153 0 76
0.664037 0.049459 -0.107018 153 0 76
0.522806 -0.261424 0.602966 153 0 76
0.219482 0.064376 0.463109 153 0 76
-0.419216 0.064376 -0.001982 153 0 76
-0.549887 -0.089892 -0.447556 153 0 76
0.335971 0.014098 -0.022373 153 0 76
0.406303 0.064376 0.215129 153 0 76
-0.392931 0.014098 -0.476309 153 0 76
-0.191818 0.064376 -0.434926 153 0 76
0.108399 0.014098 -0.645639 153 0 76
-0.589568 0.064376 -0.405967 153 0 76
-0.402682 0.064376 -0.549729 153 0 76
-0.684288 0.064376 0.401489 153 0 76
-0.333194 0.014098 0.129144 153 0 76
0.342611 0.014098 0.124650 153 0 76
0.528281 -0.217719 -0.389695 0 255 0
0.595751 -0.024505 -0.545522 153 0 76
0.596939 0.014098 -0.482400 153 0 76
0.338770 0.064376 0.270165 153 0 76
-0.282581 0.064376 -0.570090 153 0 76
0.009783 0.014098 0.054161 153 0 76
-0.483992 0.014098 0.424614 153 0 76
-0.049214 0.014098 -0.376440 153 0 76
0.244895 0.064376 -0.281137 153 0 76
0.212080 0.014098 0.317293 153 0 76
0.041833 0.064376 -0.099014 153 0 76
0.295336 0.014098 -0.083746 153 0 76
-0.518862 0.064376 -0.658887 153 0 76
-0.115451 0.064376 0.495514 153 0 76
-0.352477 0.064376 0.050140 153 0 76
0.593452 -0.302357 -0.433587 0 255 0
-0.508952 0.064376 -0.051135 153 0 76
-0.354877 0.064376 0.669408 153 0 76
-0.342511 0.014098 0.399760 153 0 76
-0.579044 0.014098 -0.172545 153 0 76
0.135927 0.064376 -0.537288 153 0 76
0.124244 0.064376 -0.248454 153 0 76
-0.303979 0.014098 -0.367932 153 0 76
-0.555947 -0.095660 -0.549970 153 0 76
0.520496 -0.275292 0.540004 153 0 76
-0.052291 0.064376 0.567840 153 0 76
-0.321854 0.064376 0.315147 153 0 76
-0.440885 0.064376 0.647987 153 0 76
0.247573 0.014098 -0.481530 153 0 76
-0.522903 0.014098 -0.301486 153 0 76
0.423796 0.014098 -0.208834 153 0 76
0.285080 0.064376 -0.579713 153 0 76
-0.568193 0.064376 -0.081456 153 0 76
-0.312547 0.064376 -0.095066 153 0 76
0.568425 -0.136300 0.672461 153 0 76
-0.241022 0.014098 0.024221 153 0 76
-0.632372 0.014098 0.409299 153 0 76
-0.581277 0.007485 0.561060 153 0 76
-0.145805 0.064376 -0.685341 153 0 76
0.227403 0.014098 0.560844 153 0 76
0.381324 0.014098 0.475247 153 0 76
-0.374893 0.064376 0.434949 153 0 76
0.524888 0.064376 0.183026 153 0 76
0.213241 0.064376 -0.139303 153 0 76
0.013675 0.014098 -0.233690 153 0 76
-0.045421 0.064376 0.403350 153 0 76
-0.558149 -0.255761 0.607257 76 0 153
0.583677 -0.236673 -0.544178 0 255 0
-0.023735 0.064376 0.189026 153 0 76
0.361462 0.064376 -0.297015 153 0 76
-0.601567 -0.186878 -0.576765 153 0 76
0.326458 0.064376 -0.416081 153 0 76
-0.113848 0.014098 -0.358319 153 0 76
0.415618 0.014098 -0.012702 153 0 76
-0.163392 0.014098 0.567106 153 0 76
-0.494522 0.064376 0.302629 153 0 76
0.008105 0.064376 0.628578 153 0 76
0.513030 -0.142125 0.747050 153 0 76
-0.244294 0.064376 0.208290 153 0 76
-0.074877 0.014098 -0.607804 153 0 76
0.469895 0.014098 0.593153 153 0 76
-0.582623 -0.109719 -0.624113 153 0 76
-0.645613 0.064376 -0.097065 153 0 76
0.251558 0.014098 0.074578 153 0 76
0.513030 -0.073016 0.650547 153 0 76
-0.539910 0.064376 0.529343 153 0 76
0.408157 0.064376 0.378120 153 0 76
-0.623267 -0.198060 0.679608 153 76 0
-0.413908 0.064376 0.305461 153 0 76
0.261045 0.064376 -0.196655 153 0 76
0.521360 0.064376 -0.331043 153 0 76
0.601096 0.014098 -0.118043 153 0 76
0.508494 0.064376 -0.133866 153 0 76
0.204479 0.014098 -0.631371 153 0 76
0.147503 0.064376 -0.396977 153 0 76
-0.098581 0.064376 -0.288009 153 0 76
-0.009763 0.064376 -0.133686 153 0 76
-0.558149 -0.158976 0.567256 76 0 153
0.043349 0.064376 -0.344728 153 0 76
0.550324 0.064376 -0.048133 153 0 76
-0.399611 0.014098 -0.200983 153 0 76
0.577724 -0.225157 0.756132 153 0 76
0.198893 0.063836 -0.687842 153 0 76
-0.583889 0.064376 -0.604152 153 0 76
0.249684 0.064376 0.400282 153 0 76
0.364220 0.014098 -0.435555 153 0 76
0.307052 0.014098 0.206842 153 0 76
0.554429 -0.104978 0.541842 153 0 76
-0.685350 0.064376 0.150253 153 0 76
0.019025 0.064376 -0.560900 153 0 76
0.065221 0.064376 -0.473710 153 0 76
0.559256 0.014098 -0.631885 153 0 76
-0.366365 0.064376 -0.411492 153 0 76
-0.066560 0.064376 -0.407012 153 0 76
-0.603768 -0.139572 0.690049 76 0 153
-0.675871 0.064376 -0.475159 153 0 76
0.045264 0.064376 0.489391 153 0 76
0.272207 0.064376 0.630455 153 0 76
-0.594595 0.014098 0.129849 153 0 76
0.571536 -0.317019 0.701775 153 0 76
-0.642587 0.064376 -0.375387 153 0 76
0.243877 0.014098 -0.372617 153 0 76
-0.323458 0.014098 0.457867 153 0 76
-0.218536 0.014098 0.617897 153 0 76
-0.442948 0.064376 0.443089 153 0 76
0.447305 0.064376 0.169431 153 0 76
0.141475 0.064376 0.269952 153 0 76
0.505113 0.064376 0.513935 153 0 76
-0.476357 0.014098 0.039229 153 0 76
0.367999 0.014098 -0.618820 153 0 76
-0.651904 0.014098 -0.050681 153 0 76
-0.645189 0.064376 0.327283 153 0 76
0.094129 0.014098 -0.284533 153 0 76
0.540566 -0.047261 -0.590954 127 127 0
-0.214374 0.014098 0.165987 153 0 76
0.604602 0.064376 0.498849 153 0 76
0.144863 0.064376 0.510090 153 0 76
0.538057 -0.178086 -0.434781 0 255 0
-0.549579 -0.205110 0.767295 76 0 153
0.455679 0.014098 -0.269329 153 0 76
-0.193392 0.014098 0.495222 153 0 76
-0.167925 0.014098 -0.233915 153 0 76
0.309774 0.014098 -0.381808 153 0 76
0.436311 0.014098 0.230910 153 0 76
-0.015878 0.064376 -0.331809 153 0 76
-0.633347 0.014098 -0.199232 153 0 76
-0.218260 0.014098 -0.107530 153 0 76
0.203214 0.064376 -0.459014 153 0 76
0.424785 0.014098 0.081751 153 0 76
0.513852 0.064376 0.017060 153 0 76
0.563502 0.064376 0.304505 153 0 76
0.601510 0.014098 0.642049 153 0 76
0.591827 -0.117814 -0.406768 0 255 0
-0.096197 0.064376 0.437082 153 0 76
-0.285756 0.014098 -0.310164 153 0 76
-0.688199 0.014098 -0.262018 153 0 76
0.261707 0.064376 0.177936 153 0 76
-0.421509 0.014098 0.357430 153 0 76
0.326556 0.014098 -0.282331 153 0 76
-0.439688 0.014098 0.244121 153 0 76
0.483201 0.014098 -0.661537 153 0 76
0.484459 0.014098 -0.464693 153 0 76
0.505868 -0.158788 0.650657 76 0 153
0.567323 0.064376 -0.585352 153 0 76
-0.319538 0.014098 -0.496452 153 0 76
-0.557600 0.064376 -0.147956 153 0 76
-0.491510 0.014098 -0.081208 153 0 76
-0.566373 0.014098 -0.641492 153 0 76
-0.174565 0.064376 -0.180643 153 0 76
-0.555947 -0.268782 -0.514861 153 0 76
0.537749 0.064376 0.368307 153 0 76
-0.254977 0.014098 0.669432 153 0 76
-0.005597 0.014098 -0.102258 153 0 76
-0.158987 0.064376 -0.586433 153 0 76
-0.348657 0.014098 -0.646076 153 0 76
0.069498 0.014098 0.088323 153 0 76
-0.249889 0.064376 0.071405 153 0 76
-0.697798 0.014098 -0.567613 153 0 76
-0.021063 0.064376 0.049432 153 0 76
0.526078 0.064376 -0.405440 153 0 76
0.396957 0.064376 -0.227038 153 0 76
-0.418156 0.014098 0.029061 153 0 76
-0.650935 0.014098 0.484145 153 0 76
-0.217781 0.064376 0.575355 153 0 76
-0.664349 0.064376 -0.533043 153 0 76
0.582052 0.014098 -0.048144 153 0 76
0.528281 -0.303414 -0.429696 0 255 0
0.028769 0.014098 -0.377828 153 0 76
-0.646869 0.064376 0.575705 153 0 76
0.454335 0.014098 -0.142129 153 0 76
-0.589044 0.064376 0.025472 153 0 76
0.284930 0.064376 -0.665409 153 0 76
0.011357 0.014098 0.593987 153 0 76
-0.646991 0.014098 0.078276 153 0 76
-0.469352 0.015904 0.674057 153 0 76
-0.469206 0.064376 0.512915 153 0 76
0.045590 0.014098 0.372400 153 0 76
-0.697862 0.021083 -0.631044 153 0 76
0.206680 0.064376 -0.578937 153 0 76
-0.558953 -0.071196 0.645704 76 0 153
0.254190 0.014098 0.254401 153 0 76
-0.088479 0.064376 0.243544 153 0 76
-0.400781 0.064376 -0.359712 153 0 76
0.522806 -0.273626 0.708116 153 0 76
0.191002 0.064376 0.548007 153 0 76
-0.621118 -0.063184 -0.577081 204 51 127
0.630430 0.014098 -0.352788 153 0 76
0.407175 0.064376 -0.639449 153 0 76
-0.291686 0.014098 -0.252064 153 0 76
-0.565382 0.004038 -0.559862 76 0 153
-0.645878 0.064376 -0.683228 153 0 76
-0.126195 0.014098 0.173382 153 0 76
-0.314759 0.014098 0.281698 153 0 76
-0.526620 -0.055279 -0.594664 204 51 127
0.079104 0.064376 -0.175602 153 0 76
-0.661110 0.014098 -0.147444 153 0 76
-0.546172 -0.171367 -0.638137 153 0 76
-0.325601 0.064376 0.549997 153 0 76
0.613762 0.064376 -0.019742 153 0 76
0.477669 0.014098 -0.031772 153 0 76
-0.196856 0.064376 -0.063054 153 0 76
0.590287 0.064376 -0.279147 153 0 76
-0.447131 0.014098 0.165359 153 0 76
-0.499095 0.014098 -0.536134 153 0 76
-0.065405 0.014098 0.434424 153 0 76
0.664037 0.015014 0.167267 153 0 76
0.228708 0.014098 0.626660 153 0 76
-0.084173 0.064376 0.076263 153 0 76
-0.029434 0.014098 -0.643702 153 0 76
-0.558149 -0.246432 0.697038 76 0 153
0.547068 0.014098 -0.511771 153 0 76
-0.361669 0.014098 0.631659 153 0 76
-0.613544 -0.058264 0.610382 153 76 0
0.194591 0.014098 0.238294 153 0 76
-0.013322 0.014098 -0.479377 153 0 76
-0.438167 0.014098 -0.109473 153 0 76
0.503254 -0.154526 0.564861 76 0 153
-0.236721 0.064376 -0.530890 153 0 76
-0.090002 0.014098 -0.198739 153 0 76
-0.672862 0.014098 0.259439 153 0 76
-0.333052 0.064376 -0.007764 153 0 76
-0.652372 0.014098 0.166578 153 0 76
-0.068510 0.064376 -0.663393 153 0 76
-0.228824 0.014098 0.356427 153 0 76
0.583677 -0.276831 -0.500041 0 255 0
-0.578097 0.014098 0.347079 153 0 76
0.248295 0.014098 0.480342 153 0 76
0.408592 0.064376 0.456402 153 0 76
0.160848 0.014098 0.375543 153 0 76
-0.362930 0.064376 -0.673466 153 0 76
0.522159 0.014098 0.553500 153 0 76
0.442124 0.014098 0.465717 153 0 76
0.023671 0.064376 0.299460 153 0 76
-0.408325 0.064376 -0.110081 153 0 76
0.014084 0.064376 0.440551 153 0 76
-0.173930 0.064376 0.346650 153 0 76
0.445219 0.064376 -0.578456 153 0 76
-0.697862 0.059359 0.081748 153 0 76
0.021781 0.014098 -0.533356 153 0 76
-0.546172 -0.315801 -0.565679 153 0 76
-0.550151 0.014098 -0.427034 153 0 76
0.439715 0.048233 0.674057 153 0 76
-0.611091 -0.168984 -0.389533 153 0 76
-0.227826 0.014098 -0.642077 153 0 76
-0.357476 0.064376 0.115417 153 0 76
0.086613 0.014098 0.659044 153 0 76
0.347061 0.014098 0.426684 153 0 76
0.416410 0.064376 -0.334554 153 0 76
-0.556725 0.064376 0.411378 153 0 76
0.150464 0.064376 0.116293 153 0 76
0.564570 0.014098 0.269218 153 0 76
-0.338716 0.014098 -0.089799 153 0 76
0.090104 0.064376 0.525595 153 0 76
0.638193 0.014098 -0.545039 153 0 76
0.638255 0.064376 -0.378671 153 0 76
0.636878 0.064376 0.086667 153 0 76
0.326561 0.064376 -0.618508 153 0 76
0.568425 -0.173813 0.605043 153 0 76
0.543488 0.014098 -0.148472 153 0 76
0.362699 0.014098 -0.212895 153 0 76
0.105653 0.014098 -0.587961 153 0 76
-0.461667 0.014098 -0.411191 153 0 76
0.277716 0.064376 0.459346 153 0 76
-0.128468 0.064376 -0.379867 153 0 76
-0.081009 0.064376 -0.579740 153 0 76
0.112296 0.064376 0.215126 153 0 76
-0.568157 -0.205162 -0.375916 153 0 76
-0.575884 0.064376 0.187807 153 0 76
0.519675 0.064376 -0.534901 153 0 76
0.364228 0.014098 0.533598 153 0 76
0.215118 0.064376 0.215654 153 0 76
-0.143534 0.014098 0.619971 153 0 76
0.379082 0.064376 -0.109436 153 0 76
0.633468 0.064376 -0.491590 153 0 76
-0.558603 0.064376 -0.358957 153 0 76
0.436298 0.064376 0.272728 153 0 76
0.047127 0.020345 -0.687842 153 0 76
0.314420 0.014098 0.053531 153 0 76
0.428212 0.014098 0.363428 153 0 76
0.400366 0.014098 -0.567618 153 0 76
-0.274303 0.014098 0.237260 153 0 76
-0.410202 0.014098 -0.057343 153 0 76
0.164409 0.064376 0.634597 153 0 76
-0.500789 0.014098 0.344089 153 0 76
-0.697862 0.061312 -0.233593 153 0 76
0.448959 0.064376 -0.470959 153 0 76
0.359089 0.064376 -0.526910 153 0 76
0.664037 0.063673 0.616670 153 0 76
0.128853 0.014098 0.544143 153 0 76
0.578201 -0.090883 0.595705 153 0 76
0.417930 0.064376 -0.049367 153 0 76
-0.426901 0.064376 0.219292 153 0 76
-0.231108 0.064376 -0.009666 153 0 76
0.582625 0.064376 0.185077 153 0 76
0.106347 0.014098 0.179779 153 0 76
0.605923 0.014098 -0.416287 153 0 76
-0.275114 0.064376 0.574361 153 0 76
-0.580945 0.064376 -0.202649 153 0 76
0.593452 -0.167537 -0.631490 0 255 0
-0.515376 0.014098 -0.002864 153 0 76
-0.287112 0.014098 0.535822 153 0 76
-0.384166 0.014098 0.477758 153 0 76
-0.603302 0.064376 -0.536074 153 0 76
-0.555947 -0.226342 -0.471686 153 0 76
0.537668 -0.217578 0.507267 153 0 76
0.193911 0.064376 -0.044206 153 0 76
-0.137150 0.064376 0.144294 153 0 76
0.263032 0.064376 -0.465401 153 0 76
-0.370922 0.064376 -0.307913 153 0 76
-0.555947 -0.169987 -0.551182 153 0 76
0.066646 0.014098 0.440380 153 0 76
-0.199457 0.014098 0.287174 153 0 76
-0.008262 0.014098 -0.181141 153 0 76
-0.558149 -0.300585 0.669223 76 0 153
-0.563164 0.064376 -0.022884 153 0 76
-0.114305 0.014098 -0.425268 153 0 76
-0.576729 0.014098 0.257778 153 0 76
-0.380394 0.064376 0.554499 153 0 76
0.624242 0.064376 -0.686206 153 0 76
0.266115 0.064376 0.570819 153 0 76
-0.645768 0.014098 -0.492424 153 0 76
-0.154526 0.064376 -0.277086 153 0 76
-0.639255 0.064376 -0.320873 153 0 76
-0.358022 0.014098 -0.375742 153 0 76
-0.251317 0.064376 -0.278954 153 0 76
0.133708 0.014098 0.464347 153 0 76
0.538057 -0.157020 -0.486873 0 255 0
-0.081785 0.014098 0.282842 153 0 76
-0.048744 0.064376 -0.463636 153 0 76
0.583677 -0.122611 -0.581074 0 255 0
-0.269924 0.014098 -0.437561 153 0 76
0.525352 -0.037540 -0.530933 127 127 0
0.129671 0.014098 -0.505505 153 0 76
-0.574744 -0.087831 0.552212 76 0 153
-0.396302 0.014098 0.136670 153 0 76
0.568425 -0.170817 0.719870 153 0 76
0.084798 0.014098 -0.095247 153 0 76
-0.075729 0.014098 0.494682 153 0 76
0.310276 0.014098 -0.496002 153 0 76
0.402279 0.014098 0.300980 153 0 76
0.483136 0.014098 -0.590363 153 0 76
0.514377 0.014098 0.107764 153 0 76
-0.601567 -0.133089 -0.473533 153 0 76
0.354775 0.064376 0.407735 153 0 76
-0.280371 0.014098 0.101926 153 0 76
-0.643994 0.014098 0.352269 153 0 76
0.566276 -0.072256 -0.445742 0 255 0
-0.185333 0.014098 -0.315520 153 0 76
-0.182849 0.014098 0.059823 153 0 76
0.171009 0.064376 -0.286948 153 0 76
0.094179 0.064376 -0.632595 153 0 76
0.578201 -0.293122 0.579199 153 0 76
-0.502371 0.064376 0.077312 153 0 76
-0.554644 0.014098 0.166035 153 0 76
-0.321239 0.064376 -0.532265 153 0 76
-0.215831 0.014098 0.426732 153 0 76
-0.116404 0.064376 -0.158131 153 0 76
-0.613841 0.018216 -0.687842 153 0 76
0.434279 0.064376 -0.103052 153 0 76
0.160064 0.014098 -0.209844 153 0 76
0.585410 0.064376 0.114303 153 0 76
-0.427038 0.014098 0.532103 153 0 76
0.550421 -0.038505 0.624294 76 0 153
0.205439 0.014098 0.035181 153 0 76
0.576668 -0.190142 0.532925 153 0 76
0.260288 0.014098 -0.625893 153 0 76
0.660875 0.064376 -0.173910 153 0 76
0.413241 0.064376 -0.281187 153 0 76
-0.120519 0.064376 0.023526 153 0 76
0.351214 0.014098 -0.074497 153 0 76
-0.060272 0.014098 -0.504894 153 0 76
0.500119 0.014098 0.363649 153 0 76
-0.541157 0.064376 0.360280 153 0 76
0.138970 0.014098 0.011755 153 0 76
-0.539617 0.064376 -0.492843 153 0 76
0.498851 0.014098 -0.235714 153 0 76
0.237605 0.014098 -0.426032 153 0 76
0.624790 0.014098 0.131256 153 0 76
0.117996 0.064376 0.391677 153 0 76
0.151703 0.064376 0.325227 153 0 76
0.359594 0.064376 0.070082 153 0 76
0.007346 0.014098 -0.592037 153 0 76
0.664037 0.024081 0.497265 153 0 76
-0.078624 0.064376 -0.058012 153 0 76
0.590195 0.014098 0.340338 153 0 76
0.593830 0.014098 -0.170650 153 0 76
-0.416482 0.014098 -0.261773 153 0 76
-0.456370 0.064376 -0.044458 153 0 76
-0.612579 0.064376 0.280144 153 0 76
0.476640 0.014098 0.265538 153 0 76
0.545009 0.064376 0.601937 153 0 76
0.566751 0.014098 -0.379079 153 0 76
-0.456917 0.014098 -0.634266 153 0 76
0.084098 0.064376 0.453418 153 0 76
-0.311613 0.064376 -0.648784 153 0 76
0.552507 0.064376 -0.104666 153 0 76
0.043259 0.064376 0.667990 153 0 76
-0.057711 0.014098 -0.093788 153 0 76
0.590109 -0.215054 0.684891 76 0 153
0.101987 0.014098 -0.155438 153 0 76
-0.561007 -0.271801 0.529416 76 0 153
-0.185540 0.064376 -0.650619 153 0 76
0.154379 0.064376 -0.160905 153 0 76
-0.274141 0.014098 -0.199682 153 0 76
-0.600303 0.064376 0.607374 153 0 76
-0.272797 0.064376 -0.043003 153 0 76
-0.070887 0.064376 0.357315 153 0 76
-0.063540 0.064376 -0.247538 153 0 76
0.544371 0.064376 -0.635036 153 0 76
0.040195 0.064376 0.349313 153 0 76
-0.519627 0.064376 0.204704 153 0 76
-0.604313 0.014098 0.514355 153 0 76
-0.613544 -0.259673 0.736508 76 0 153
-0.324418 0.064376 0.372647 153 0 76
0.269513 0.064376 0.055585 153 0 76
-0.455496 0.064376 -0.237078 153 0 76
0.275062 0.014098 -0.137783 153 0 76
0.035467 0.014098 -0.003309 153 0 76
-0.225579 0.064376 0.511316 153 0 76
-0.225230 0.064376 0.262167 153 0 76
-0.518882 0.014098 0.468814 153 0 76
0.447523 0.014098 0.028654 153 0 76
0.510340 0.064376 -0.188249 153 0 76
0.049908 0.064376 0.037324 153 0 76
0.021663 0.064376 -0.648127 153 0 76
0.664037 0.015927 0.259263 153 0 76
-0.574000 0.014098 -0.317960 153 0 76
0.075256 0.064376 0.124416 153 0 76
-0.306918 0.014098 0.003452 153 0 76
-0.316421 0.064376 -0.442327 153 0 76
-0.224997 0.064376 -0.378919 153 0 76
-0.585443 0.064376 0.487666 153 0 76
-0.302851 0.064376 0.666708 153 0 76
0.522806 -0.236411 0.663444 153 0 76
-0.606604 0.064376 0.077080 153 0 76
0.217556 0.014098 -0.327755 153 0 76
0.662995 0.064376 -0.269965 153 0 76
0.558177 0.064376 -0.447342 153 0 76
-0.487788 0.064376 0.614858 153 0 76
0.620301 0.064376 0.282224 153 0 76
0.034415 0.014098 0.537452 153 0 76
0.089559 0.014098 0.284030 153 0 76
0.604464 0.064376 0.410959 153 0 76
-0.241144 0.014098 -0.583417 153 0 76
-0.036365 0.064376 -0.539275 153 0 76
0.572937 0.014098 0.563487 153 0 76
-0.404092 0.064376 -0.642173 153 0 76
-0.173510 0.064376 0.671043 153 0 76
0.394122 0.014098 -0.393331 153 0 76
-0.517092 0.064376 -0.115915 153 0 76
-0.137110 0.014098 -0.653974 153 0 76
0.588264 -0.192373 -0.468983 0 255 0
-0.012069 0.014098 0.189044 153 0 76
-0.245497 0.064376 0.461695 153 0 76
-0.350389 0.064376 0.504820 153 0 76
0.085918 0.064376 -0.524869 153 0 76
-0.397976 0.064376 0.083564 153 0 76
-0.340371 0.014098 0.576397 153 0 76
0.157057 0.014098 0.278318 153 0 76
0.538057 -0.195768 -0.618431 0 255 0
0.306437 0.064376 -0.164701 153 0 76
-0.174898 0.014098 -0.486471 153 0 76
-0.512934 -0.172648 -0.516655 127 0 127
-0.469867 0.014098 -0.304123 153 0 76
0.646024 0.064376 0.374280 153 0 76
-0.520048 0.014098 -0.182937 153 0 76
0.528281 -0.232035 -0.522194 0 255 0
0.596431 0.014098 -0.580242 153 0 76
-0.533543 0.024740 -0.687842 153 0 76
0.094791 0.014098 -0.018320 153 0 76
0.477336 0.014098 -0.404567 153 0 76
0.627255 0.014098 -0.211383 153 0 76
-0.531757 -0.240637 0.650332 153 76 0
-0.658954 0.064376 0.646479 153 0 76
0.528281 -0.157672 -0.385515 0 255 0
-0.111116 0.064376 0.547826 153 0 76
-0.537079 0.014098 0.043369 153 0 76
-0.604964 -0.252022 -0.616614 153 0 76
0.436958 0.014098 -0.513782 153 0 76
0.401495 0.064376 0.572350 153 0 76
0.655432 0.064376 -0.620175 153 0 76
0.564928 0.014098 0.454317 153 0 76
-0.034855 0.064376 0.294037 153 0 76
-0.146482 0.064376 0.235342 153 0 76
0.458265 0.064376 0.321785 153 0 76
-0.600645 0.014098 -0.603949 153 0 76
-0.368422 0.014098 0.260997 153 0 76
0.340918 0.014098 0.659333 153 0 76
-0.641192 0.064376 0.175268 153 0 76
-0.601567 -0.141394 -0.523599 153 0 76
-0.060382 0.064376 -0.137309 153 0 76
-0.697549 0.014098 0.513225 153 0 76
0.155663 0.064376 0.056769 153 0 76
-0.588265 -0.290700 -0.410844 153 0 76
-0.025770 0.014098 0.090266 153 0 76
0.520378 0.064376 0.238965 153 0 76
-0.404434 0.064376 0.605364 153 0 76
0.066210 0.014098 -0.242341 153 0 76
-0.611342 -0.302940 -0.579803 153 0 76
-0.140939 0.014098 0.502573 153 0 76
-0.018728 0.014098 0.350187 153 0 76
0.254866 0.014098 -0.041380 153 0 76
0.385441 0.062309 0.674057 153 0 76
-0.476593 0.064376 -0.156495 153 0 76
0.410236 0.064376 -0.438702 153 0 76
-0.489531 0.014098 0.251461 153 0 76
-0.009322 0.014098 -0.429173 153 0 76
0.129055 0.064376 -0.057870 153 0 76
-0.621118 -0.240804 -0.516946 204 51 127
0.576718 -0.229559 -0.375352 0 255 0
-0.605269 0.014098 0.656405 153 0 76
0.130355 0.064376 -0.667453 153 0 76
-0.127341 0.014098 0.404182 153 0 76
0.327172 0.014098 0.263036 153 0 76
-0.315461 0.014098 -0.572255 153 0 76
-0.566910 0.064376 -0.250750 153 0 76
0.209255 0.064376 0.153169 153 0 76
-0.050726 0.014098 0.658150 153 0 76
0.503659 0.064376 0.570549 153 0 76
0.572434 0.064376 -0.676768 153 0 76
-0.603768 -0.148955 0.628506 76 0 153
-0.607344 -0.310886 -0.489238 153 0 76
-0.691469 0.064376 0.233688 153 0 76
0.460299 0.014098 0.408376 153 0 76
0.583677 -0.181576 -0.551856 0 255 0
-0.190710 0.064376 0.093166 153 0 76
0.421000 0.014098 0.511392 153 0 76
-0.556264 -0.204712 0.599809 76 0 153
-0.349232 0.014098 0.176378 153 0 76
0.465268 0.014098 0.118994 153 0 76
-0.070451 0.064376 0.141657 153 0 76
-0.555947 -0.206046 -0.424229 153 0 76
-0.679656 0.014098 0.309625 153 0 76
0.258276 0.064376 -0.342927 153 0 76
-0.473495 0.014098 -0.578852 153 0 76
-0.422746 0.014098 0.629378 153 0 76
-0.558149 -0.140553 0.716324 76 0 153
0.267041 0.064376 0.128480 153 0 76
-0.280245 0.014098 0.417558 153 0 76
0.634941 0.014098 -0.298867 153 0 76
0.514482 -0.312372 0.630269 153 0 76
-0.005390 0.014098 0.256940 153 0 76
-0.475192 0.064376 0.010321 153 0 76
0.564191 -0.063783 -0.547114 0 255 0
0.116242 0.014098 -0.376713 153 0 76
0.502629 0.014098 0.470340 153 0 76
0.509029 -0.092432 0.560752 76 0 153
-0.641614 -0.225745 0.637447 0 255 0
0.089648 0.014098 0.346413 153 0 76
-0.555947 -0.284355 -0.462507 153 0 76
-0.500835 0.014098 0.148177 153 0 76
-0.097263 0.014098 -0.253599 153 0 76
-0.068023 0.064376 0.509149 153 0 76
-0.613234 -0.115934 0.539542 76 0 153
0.486769 0.064376 -0.670099 153 0 76
-0.295450 0.064376 0.175600 153 0 76
0.597752 -0.202573 0.575687 76 0 153
0.528281 -0.261399 -0.605435 0 255 0
-0.611143 -0.101592 0.720987 76 0 153
-0.251582 0.029759 -0.687842 153 0 76
0.345545 0.014098 0.313738 153 0 76
-0.188859 0.064376 0.409773 153 0 76
0.628368 0.014098 -0.077085 153 0 76
-0.599406 -0.028885 -0.546539 0 255 0
-0.451247 0.014098 -0.202301 153 0 76
0.312759 0.014098 0.375885 153 0 76
-0.387495 0.064376 -0.154535 153 0 76
0.212365 0.014098 -0.524497 153 0 76
0.613003 -0.087517 -0.534684 127 127 0
0.202332 0.015431 0.674057 153 0 76
0.346222 0.014098 0.177377 153 0 76
-0.613544 -0.326240 0.664520 76 0 153
-0.086813 0.014098 -0.005621 153 0 76
0.522806 -0.140701 0.692867 153 0 76
-0.548373 -0.295569 0.721093 76 0 153
-0.695150 0.064376 0.453985 153 0 76
0.544288 -0.327836 -0.528798 0 255 0
0.336509 0.064376 0.325965 153 0 76
-0.512251 0.064376 -0.588103 153 0 76
-0.523957 0.014098 0.641065 153 0 76
0.357047 0.064376 -0.346352 153 0 76
-0.697862 0.062301 0.331338 153 0 76
0.546186 -0.310617 -0.576402 0 255 0
0.016124 0.064376 0.133767 153 0 76
0.626850 -0.172621 -0.505547 153 76 0
0.546432 -0.062818 0.684472 153 0 76
0.457660 0.014098 0.644338 153 0 76
0.383061 0.064376 0.166070 153 0 76
-0.642840 0.014098 0.218132 153 0 76
0.116465 0.014098 0.609381 153 0 76
-0.415183 0.064376 -0.410045 153 0 76
0.265719 0.064376 0.006958 153 0 76
0.390889 0.061074 -0.687842 153 0 76
0.623450 0.064376 -0.128813 153 0 76
-0.488876 0.064376 0.557559 153 0 76
-0.046555 0.064376 0.624297 153 0 76
-0.697862 0.034653 0.566280 153 0 76
-0.171189 0.014098 0.447921 153 0 76
0.186071 0.064376 0.419414 153 0 76
0.618874 0.064376 0.663866 153 0 76
0.661448 0.014098 0.552218 153 0 76
-0.051337 0.064376 -0.299173 153 0 76
0.323198 0.014098 -0.135700 153 0 76
-0.589028 0.014098 -0.271732 153 0 76
-0.268715 0.014098 -0.090377 153 0 76
0.664037 0.018207 0.016144 153 0 76
-0.531677 0.014098 0.578917 153 0 76
0.621344 0.064376 -0.580026 153 0 76
0.440014 0.064376 0.415748 153 0 76
-0.214991 0.064376 -0.488054 153 0 76
-0.189009 0.014098 -0.145604 153 0 76
0.497803 0.014098 -0.121751 153 0 76
-0.302745 0.064376 0.615246 153 0 76
-0.582143 0.014098 0.408154 153 0 76
-0.595721 0.014098 -0.452149 153 0 76
-0.126514 0.064376 0.661751 153 0 76
-0.697862 0.015662 0.059044 153 0 76
0.526995 0.064376 0.660542 153 0 76
0.538057 -0.254781 -0.423543 0 255 0
-0.648989 0.064376 0.507500 153 0 76
0.122942 0.064376 0.168441 153 0 76
0.498677 0.064376 0.142959 153 0 76
0.059121 0.014098 -0.576952 153 0 76
0.398260 0.014098 -0.313819 153 0 76
-0.611342 -0.182335 -0.489672 153 0 76
0.023581 0.064376 -0.054922 153 0 76
-0.546172 -0.077052 -0.505257 153 0 76
0.136837 0.014098 -0.105754 153 0 76
0.471732 0.064376 -0.358461 153 0 76
-0.448432 0.064376 -0.534180 153 0 76
0.046339 0.014098 0.263567 153 0 76
-0.145735 0.014098 -0.036990 153 0 76
-0.499623 0.064376 -0.364456 153 0 76
-0.509582 0.064376 0.405424 153 0 76
0.661688 0.014098 0.435280 153 0 76
0.522806 -0.186729 0.607849 153 0 76
0.046238 0.064376 -0.420514 153 0 76
0.643749 0.064376 -0.057771 153 0 76
-0.642888 0.064376 -0.435803 153 0 76
0.583677 -0.257804 -0.452715 0 255 0
0.109418 0.064376 0.017671 153 0 76
-0.137608 0.014098 0.073756 153 0 76
0.528281 -0.106428 -0.593464 0 255 0
-0.029988 0.014098 0.465973 153 0 76
0.506276 0.064376 -0.277631 153 0 76
0.231939 0.064376 -0.087266 153 0 76
-0.697862 0.018050 -0.037995 153 0 76
-0.558149 -0.302766 0.621915 76 0 153
0.139892 0.014098 -0.252447 153 0 76
-0.551756 0.064376 0.648176 153 0 76
-0.555947 -0.149838 -0.442082 153 0 76
-0.555947 -0.254869 -0.574586 153 0 76
0.119170 0.064376 -0.200349 153 0 76
0.151946 0.014098 0.191541 153 0 76
0.019778 0.064376 0.209881 153 0 76
0.585987 -0.034971 -0.590434 76 153 0
-0.360767 0.014098 -0.048240 153 0 76
0.061121 0.014098 -0.185124 153 0 76
-0.107358 0.014098 0.325555 153 0 76
0.664037 0.056877 -0.422439 153 0 76
-0.269071 0.064376 0.363222 153 0 76
-0.009041 0.064376 0.504438 153 0 76
-0.333395 0.064376 0.226254 153 0 76
0.597752 -0.125722 0.620275 76 0 153
-0.456662 0.064376 0.113573 153 0 76
-0.311979 0.064376 0.469473 153 0 76
-0.334657 0.014098 -0.140253 153 0 76
-0.219578 0.064376 0.660392 153 0 76
-0.229851 0.064376 -0.202765 153 0 76
-0.290520 0.064376 -0.136280 153 0 76
-0.091423 0.014098 0.617630 153 0 76
0.546897 0.014098 0.388024 153 0 76
0.066372 0.014098 0.615485 153 0 76
-0.572233 -0.037540 0.569188 204 51 127
0.543934 0.014098 0.660710 153 0 76
0.506075 0.064376 -0.033460 153 0 76
-0.413820 0.064376 -0.063795 153 0 76
0.276490 0.014098 0.548635 153 0 76
0.543441 0.064376 0.487509 153 0 76
0.583677 -0.249410 -0.594059 0 255 0
-0.410206 0.064376 -0.596073 153 0 76
-0.391780 0.064376 0.177629 153 0 76
-0.223406 0.014098 -0.517105 153 0 76
0.471616 0.014098 -0.316523 153 0 76
0.569655 0.064376 -0.323362 153 0 76
0.611809 0.064376 0.564551 153 0 76
-0.538598 -0.062492 0.601301 153 76 0
-0.079879 0.064376 0.660792 153 0 76
0.563945 0.014098 0.215604 153 0 76
-0.613544 -0.159548 0.515529 76 0 153
-0.413729 0.064376 0.407162 153 0 76
0.618679 0.014098 -0.639681 153 0 76
-0.603768 -0.185737 0.724386 76 0 153
-0.119006 0.064376 -0.553473 153 0 76
-0.272779 0.064376 0.294762 153 0 76
-0.561888 0.064376 0.065673 153 0 76
0.536010 -0.210692 -0.469351 0 255 0
-0.640679 0.014098 -0.244744 153 0 76
-0.621118 -0.086911 -0.537571 204 51 127
0.295785 0.064376 -0.299217 153 0 76
-0.364441 0.014098 -0.597664 153 0 76
-0.685338 0.064376 -0.349502 153 0 76
-0.550174 0.014098 0.211803 153 0 76
-0.665857 0.064376 -0.183662 153 0 76
-0.437702 0.014098 -0.679774 153 0 76
0.298368 0.064376 -0.035616 153 0 76
0.316364 0.064376 0.513933 153 0 76
-0.407645 0.014098 0.289795 153 0 76
0.583677 -0.279904 -0.559399 0 255 0
0.363371 0.064376 0.597725 153 0 76
0.448780 0.064376 0.509717 153 0 76
0.207166 0.014098 0.085818 153 0 76
0.295991 0.064376 0.286494 153 0 76
0.390435 0.064376 0.258078 153 0 76
0.150140 0.014098 -0.614823 153 0 76
-0.156894 0.064376 -0.085298 153 0 76
-0.525895 0.064376 -0.327076 153 0 76
-0.437652 0.014098 -0.459382 153 0 76
0.436306 0.014098 -0.678381 153 0 76
-0.249940 0.014098 -0.339296 153 0 76
-0.140359 0.064376 -0.320403 153 0 76
-0.654734 0.064376 -0.638530 153 0 76
-0.526620 -0.135153 -0.549960 204 51 127
-0.372673 0.014098 -0.237661 153 0 76
-0.535812 0.064376 0.282335 153 0 76
-0.511723 0.014098 -0.230151 153 0 76
-0.262878 0.014098 -0.483656 153 0 76
0.573266 0.014098 0.029325 153 0 76
-0.478914 0.064376 -0.462135 153 0 76
-0.332626 0.014098 -0.314303 153 0 76
0.185774 0.064376 -0.538682 153 0 76
-0.136416 0.014098 -0.201294 153 0 76
-0.092908 0.014098 -0.300802 153 0 76
0.091694 0.064376 -0.083511 153 0 76
0.100818 0.064376 0.673398 153 0 76
-0.538598 -0.163667 0.607860 153 76 0
0.391468 0.014098 -0.050992 153 0 76
-0.200682 0.064376 -0.292750 153 0 76
-0.155398 0.014098 -0.445674 153 0 76
-0.611154 -0.196696 0.599746 76 0 153
-0.051161 0.014098 0.561080 153 0 76
0.250141 0.061184 0.674057 153 0 76
-0.507059 0.014098 -0.413453 153 0 76
0.074956 0.014098 -0.404024 153 0 76
0.650443 0.064376 0.482096 153 0 76
-0.471963 0.014098 -0.367259 153 0 76
-0.558373 0.064376 -0.451812 153 0 76
-0.644642 0.014098 -0.594012 153 0 76
-0.140313 0.064376 0.446477 153 0 76
0.322390 0.064376 -0.116286 153 0 76
-0.461260 0.014098 0.561446 153 0 76
0.485296 -0.199533 0.675981 0 0 255
0.069870 0.014098 0.143306 153 0 76
0.584844 0.064376 -0.214369 153 0 76
0.310907 0.064376 0.417927 153 0 76
-0.570850 -0.079456 -0.589202 153 0 76
-0.368946 0.064376 0.305937 153 0 76
-0.403925 0.064376 0.673586 153 0 76
-0.012374 0.014098 0.012659 153 0 76
0.664037 0.034917 0.124491 153 0 76
0.126212 0.064376 -0.584330 153 0 76
-0.536993 -0.174280 0.670409 153 76 0
0.319420 0.014098 -0.238036 153 0 76
-0.671366 0.064376 0.007890 153 0 76
0.039875 0.064376 -0.143832 153 0 76
0.333350 0.064376 0.143529 153 0 76
-0.127563 0.064376 0.276425 153 0 76
0.162940 0.064376 -0.332431 153 0 76
0.637954 0.014098 0.336966 153 0 76
-0.091027 0.014098 -0.123708 153 0 76
-0.398778 0.064376 -0.505284 153 0 76
0.593452 -0.327929 -0.487239 0 255 0
0.361386 0.014098 -0.546000 153 0 76
0.337239 0.015824 -0.687842 153 0 76
0.209982 0.064376 0.507740 153 0 76
-0.374516 0.014098 0.368869 153 0 76
0.612548 0.064376 0.220637 153 0 76
0.513030 -0.069513 0.606227 76 0 153
-0.234463 0.064376 -0.447430 153 0 76
-0.456417 0.064376 0.166667 153 0 76
0.238326 0.014098 -0.284047 153 0 76
-0.182355 0.064376 -0.391285 153 0 76
-0.550175 0.064376 0.455289 153 0 76
-0.674460 0.014098 -0.400792 153 0 76
-0.603768 -0.304295 0.627195 76 0 153
-0.359170 0.064376 -0.117031 153 0 76
-0.619566 0.064376 -0.577361 153 0 76
0.310683 0.014098 -0.335684 153 0 76
0.383397 0.014098 0.201477 153 0 76
