ply
format ascii 1.0
element vertex 627
property float x
property float y
property float z
property float nx
property float ny
property float nz
property uchar red
property uchar green
property uchar blue
property float opacity
end_header
0.318561 0.014098 0.398488 0.000000 1.000000 0.000000 255 255 255 1.000000
-0.124540 0.014098 -0.270485 0.000000 1.000000 0.000000 255 255 255 1.000000
-0.323130 0.064376 0.613677 0.000000 1.000000 0.000000 209 181 168 1.000000
-0.638284 0.014230 -0.687842 0.000000 0.000000 1.000000 255 255 255 1.000000
-0.067111 0.064376 -0.180838 0.000000 1.000000 0.000000 190 165 153 1.000000
0.444845 0.064376 -0.098107 0.000000 -1.000000 0.000000 255 255 255 1.000000
0.653536 0.014098 -0.667551 0.000000 -1.000000 0.000000 177 157 142 1.000000
-0.081759 0.014098 -0.108527 0.000000 1.000000 0.000000 255 255 255 1.000000
-0.327231 0.014098 0.122493 0.000000 1.000000 0.000000 255 255 255 1.000000
0.664037 0.059742 -0.346961 1.000000 0.000000 0.000000 137 109 92 1.000000
0.411426 0.014098 0.255712 0.000000 1.000000 0.000000 255 255 255 1.000000
-0.092090 0.014098 -0.269208 0.000000 1.000000 0.000000 255 255 255 1.000000
-0.057615 0.014098 -0.643750 0.000000 -1.000000 0.000000 206 178 165 1.000000
-0.590308 0.014098 -0.038009 0.000000 1.000000 0.000000 255 255 255 1.000000
-0.230997 0.064376 0.607672 0.000000 1.000000 0.000000 216 188 175 1.000000
-0.679944 0.064376 -0.201439 0.000000 -1.000000 0.000000 255 255 255 1.000000
-0.645597 0.064376 0.368656 0.000000 -1.000000 0.000000 255 255 255 1.000000
-0.558149 -0.279057 0.655101 1.000000 0.000000 0.000000 35 35 35 1.000000
0.519857 0.014098 -0.193749 0.000000 -1.000000 0.000000 178 160 145 1.000000
-0.256206 0.014098 0.645393 0.000000 -1.000000 0.000000 169 150 130 1.000000
0.489467 0.014098 -0.165277 0.000000 1.000000 0.000000 255 255 255 1.000000
-0.082135 0.064376 -0.602215 0.000000 -1.000000 0.000000 255 255 255 1.000000
-0.623320 -0.071357 0.605068 -0.998796 0.049066 0.000000 35 35 35 1.000000
-0.082241 0.014098 0.001944 0.000000 1.000000 0.000000 255 255 255 1.000000
0.461716 0.014098 -0.162478 0.000000 1.000000 0.000000 255 255 255 1.000000
-0.263413 0.064376 0.604135 0.000000 -1.000000 0.000000 255 255 255 1.000000
0.174104 0.014098 -0.195772 0.000000 1.000000 0.000000 255 255 255 1.000000
0.645688 0.014098 0.609603 0.000000 1.000000 0.000000 255 255 255 1.000000
-0.603768 -0.182374 0.585045 -1.000000 0.000000 0.000000 35 35 35 1.000000
-0.528245 0.014098 -0.189791 0.000000 -1.000000 0.000000 117 91 92 1.000000
0.571814 0.014098 -0.596113 0.000000 -1.000000 0.000000 199 174 154 1.000000
-0.213101 0.014098 0.410894 0.000000 -1.000000 0.000000 203 184 169 1.000000
0.445718 0.064376 -0.426626 0.000000 -1.000000 0.000000 255 255 255 1.000000
0.503254 -0.124014 0.571200 0.999586 -0.028772 0.000000 35 35 35 1.000000
0.037745 0.014098 -0.420917 0.000000 -1.000000 0.000000 181 167 154 1.000000
0.095243 0.014098 0.485114 0.000000 -1.000000 0.000000 189 174 159 1.000000
0.365852 0.014098 -0.310980 0.000000 1.000000 0.000000 255 255 255 1.000000
0.285456 0.014098 0.491779 0.000000 1.000000 0.000000 255 255 255 1.000000
-0.102441 0.064376 -0.661816 0.000000 1.000000 0.000000 178 159 136 1.000000
0.567884 -0.200394 0.775805 0.000000 -0.000551 -1.000000 35 35 35 1.000000
0.221471 0.064376 0.013197 0.000000 1.000000 0.000000 203 176 155 1.000000
0.009138 0.014098 -0.484585 0.000000 1.000000 0.000000 255 255 255 1.000000
0.120251 0.014098 0.017774 0.000000 -1.000000 0.000000 180 166 151 1.000000
0.610536 -0.198686 0.626563 0.997608 0.009441 -0.068477 35 35 35 1.000000
-0.310072 0.064376 -0.159225 0.000000 -1.000000 0.000000 255 255 255 1.000000
0.061021 0.014098 -0.576680 0.000000 1.000000 0.000000 255 255 255 1.000000
-0.264547 0.064376 -0.373622 0.000000 -1.000000 0.000000 255 255 255 1.000000
-0.265326 0.014098 0.341513 0.000000 -1.000000 0.000000 196 176 161 1.000000
-0.153296 0.064376 0.305309 0.000000 -1.000000 0.000000 255 255 255 1.000000
0.583676 -0.265984 -0.418538 -1.000000 0.000000 0.000000 35 35 35 1.000000
0.538057 -0.135723 -0.559308 -1.000000 0.000000 0.000000 35 35 35 1.000000
-0.088760 0.064376 -0.312580 0.000000 1.000000 0.000000 201 183 165 1.000000
-0.094426 0.064376 -0.576663 0.000000 1.000000 0.000000 195 176 158 1.000000
-0.588324 0.014098 -0.614137 0.000000 1.000000 0.000000 255 255 255 1.000000
-0.466815 0.064376 0.176902 0.000000 1.000000 0.000000 177 148 134 1.000000
-0.603116 -0.203667 -0.553624 0.000000 -0.084165 -0.996452 35 35 35 1.000000
0.096193 0.064376 0.225756 0.000000 1.000000 0.000000 185 163 151 1.000000
-0.301636 0.064376 -0.614498 0.000000 1.000000 0.000000 176 159 138 1.000000
0.490252 0.064376 0.207820 0.000000 1.000000 0.000000 188 174 158 1.000000
-0.617600 -0.205577 -0.491094 0.993801 0.056585 -0.095700 139 139 134 1.000000
-0.256300 0.014098 0.548613 0.000000 1.000000 0.000000 255 255 255 1.000000
-0.100419 0.064376 -0.190084 0.000000 1.000000 0.000000 174 159 144 1.000000
-0.160182 0.064376 0.072300 0.000000 1.000000 0.000000 201 176 160 1.000000
-0.563901 -0.206789 0.506498 -0.928086 0.015928 0.372026 35 35 35 1.000000
-0.234874 0.064376 0.019087 0.000000 -1.000000 0.000000 255 255 255 1.000000
0.572723 0.010140 0.578203 -0.828053 0.000000 0.560649 130 130 149 1.000000
-0.697862 0.044533 -0.282617 -1.000000 0.000000 0.000000 168 137 115 1.000000
0.551225 0.014098 0.603052 0.000000 1.000000 0.000000 255 255 255 1.000000
-0.423626 0.014098 0.180095 0.000000 1.000000 0.000000 255 255 255 1.000000
0.625637 0.064376 0.366499 0.000000 1.000000 0.000000 170 151 141 1.000000
0.503254 -0.181127 0.611307 1.000000 0.000000 0.000000 35 35 35 1.000000
0.458767 0.014098 0.152961 0.000000 -1.000000 0.000000 187 169 155 1.000000
-0.483170 0.064376 0.505115 0.000000 1.000000 0.000000 201 181 170 1.000000
-0.408727 0.014098 0.331596 0.000000 1.000000 0.000000 255 255 255 1.000000
0.583676 -0.294138 -0.563941 1.000000 0.000000 0.000000 35 35 35 1.000000
-0.084022 0.064376 -0.366209 0.000000 -1.000000 0.000000 255 255 255 1.000000
-0.282103 0.064376 -0.148984 0.000000 1.000000 0.000000 172 156 144 1.000000
0.173547 0.014098 0.367439 0.000000 -1.000000 0.000000 186 167 153 1.000000
-0.433559 0.014098 -0.614026 0.000000 1.000000 0.000000 255 255 255 1.000000
-0.595078 -0.115407 -0.613348 0.000000 -0.656946 0.753937 35 35 35 1.000000
0.646246 0.014098 0.396890 0.000000 -1.000000 0.000000 163 149 134 1.000000
0.318749 0.064376 0.551208 0.000000 -1.000000 0.000000 255 255 255 1.000000
-0.621118 -0.058406 -0.596537 0.998333 -0.057723 0.000000 35 35 35 1.000000
0.147531 0.014098 0.673777 0.000000 -1.000000 0.000000 191 173 150 1.000000
0.576382 -0.230523 0.622244 0.000000 -0.791227 -0.611523 35 35 35 1.000000
-0.634258 0.064376 -0.297912 0.000000 1.000000 0.000000 180 171 160 1.000000
-0.360745 0.064376 0.606173 0.000000 -1.000000 0.000000 255 255 255 1.000000
0.593452 -0.326612 -0.480919 1.000000 0.000000 0.000000 35 35 35 1.000000
0.364017 0.064376 0.336971 0.000000 -1.000000 0.000000 255 255 255 1.000000
-0.461290 0.064376 0.221028 0.000000 1.000000 0.000000 168 140 126 1.000000
0.187686 0.014098 -0.285246 0.000000 1.000000 0.000000 255 255 255 1.000000
0.664037 0.044655 0.286468 1.000000 0.000000 0.000000 149 121 96 1.000000
-0.430862 0.014098 -0.573413 0.000000 1.000000 0.000000 255 255 255 1.000000
-0.061538 0.014098 -0.604068 0.000000 1.000000 0.000000 255 255 255 1.000000
0.296911 0.061551 0.674057 0.000000 0.000000 1.000000 169 141 132 1.000000
-0.056715 0.064376 -0.566260 0.000000 -1.000000 0.000000 255 255 255 1.000000
-0.179289 0.016143 -0.687842 0.000000 0.000000 -1.000000 153 148 138 1.000000
0.457034 0.014098 -0.564464 0.000000 -1.000000 0.000000 192 164 149 1.000000
0.425529 0.064376 -0.306376 0.000000 1.000000 0.000000 188 166 154 1.000000
-0.579814 0.014098 0.150230 0.000000 1.000000 0.000000 255 255 255 1.000000
0.583676 -0.127884 -0.523454 -1.000000 0.000000 0.000000 35 35 35 1.000000
0.647422 0.064376 0.533211 0.000000 1.000000 0.000000 202 179 164 1.000000
0.079498 0.064376 -0.618821 0.000000 -1.000000 0.000000 255 255 255 1.000000
0.419417 0.027132 -0.687842 0.000000 0.000000 -1.000000 142 122 97 1.000000
0.418351 0.064376 0.567562 0.000000 1.000000 0.000000 191 165 148 1.000000
-0.013549 0.014098 -0.635799 0.000000 1.000000 0.000000 255 255 255 1.000000
0.015419 0.014098 -0.105743 0.000000 1.000000 0.000000 255 255 255 1.000000
-0.643559 0.014098 -0.301017 0.000000 1.000000 0.000000 255 255 255 1.000000
-0.613544 -0.235269 0.527631 -1.000000 0.000000 0.000000 35 35 35 1.000000
0.229778 0.064376 -0.528733 0.000000 1.000000 0.000000 185 166 148 1.000000
0.518506 -0.104309 -0.546324 0.999537 -0.030432 0.000000 35 35 35 1.000000
-0.366283 0.014098 -0.256192 0.000000 1.000000 0.000000 255 255 255 1.000000
-0.546172 -0.258287 -0.629447 -1.000000 0.000000 0.000000 35 35 35 1.000000
-0.239571 0.014098 0.082301 0.000000 1.000000 0.000000 255 255 255 1.000000
0.643002 0.014098 0.023963 0.000000 1.000000 0.000000 255 255 255 1.000000
0.551663 -0.225404 0.506160 0.287476 -0.172093 -0.942200 35 35 35 1.000000
0.603227 -0.066214 -0.571038 1.000000 0.000000 0.000000 35 35 35 1.000000
-0.619943 0.014098 -0.603172 0.000000 -1.000000 0.000000 211 183 170 1.000000
-0.176084 0.014098 -0.223410 0.000000 1.000000 0.000000 255 255 255 1.000000
0.528281 -0.124421 -0.603116 1.000000 0.000000 0.000000 35 35 35 1.000000
-0.266052 0.064376 0.145647 0.000000 -1.000000 0.000000 255 255 255 1.000000
0.548392 -0.143130 -0.628364 0.831987 -0.230966 0.504433 35 35 35 1.000000
-0.603768 -0.267834 0.648182 1.000000 0.000000 0.000000 35 35 35 1.000000
-0.515882 0.014098 -0.366174 0.000000 1.000000 0.000000 255 255 255 1.000000
-0.174746 0.014098 0.611317 0.000000 -1.000000 0.000000 190 172 152 1.000000
-0.497237 0.014098 -0.092325 0.000000 -1.000000 0.000000 190 164 152 1.000000
-0.317218 0.014098 -0.584593 0.000000 -1.000000 0.000000 228 204 188 1.000000
-0.556111 -0.106378 0.574669 0.000000 -0.831353 0.555745 35 35 35 1.000000
-0.083209 0.014098 0.155965 0.000000 -1.000000 0.000000 185 162 150 1.000000
0.186047 0.014098 -0.599668 0.000000 1.000000 0.000000 255 255 255 1.000000
0.641955 0.064376 0.004303 0.000000 -1.000000 0.000000 255 255 255 1.000000
-0.451751 0.014098 -0.149807 0.000000 1.000000 0.000000 255 255 255 1.000000
-0.331994 0.014098 -0.335532 0.000000 1.000000 0.000000 255 255 255 1.000000
0.196451 0.023712 -0.687842 0.000000 0.000000 -1.000000 162 151 138 1.000000
0.373696 0.014098 -0.120042 0.000000 -1.000000 0.000000 177 155 143 1.000000
-0.529837 0.064376 0.363495 0.000000 1.000000 0.000000 180 164 156 1.000000
0.029246 0.064376 -0.456200 0.000000 -1.000000 0.000000 255 255 255 1.000000
-0.005787 0.064376 0.120958 0.000000 1.000000 0.000000 186 166 145 1.000000
-0.064552 0.014098 -0.501738 0.000000 -1.000000 0.000000 191 174 162 1.000000
-0.558149 -0.177789 0.724389 1.000000 0.000000 0.000000 35 35 35 1.000000
-0.592579 -0.330549 -0.488233 0.905442 0.415090 -0.088737 35 35 35 1.000000
-0.124460 0.064376 -0.463521 0.000000 -1.000000 0.000000 255 255 255 1.000000
-0.142601 0.064376 0.448202 0.000000 -1.000000 0.000000 255 255 255 1.000000
0.070342 0.014098 0.601211 0.000000 -1.000000 0.000000 186 167 145 1.000000
-0.403330 0.014098 0.586329 0.000000 -1.000000 0.000000 175 158 138 1.000000
-0.412301 0.014098 0.448152 0.000000 1.000000 0.000000 255 255 255 1.000000
-0.319853 0.014098 -0.312647 0.000000 1.000000 0.000000 255 255 255 1.000000
-0.588121 -0.022991 -0.600384 0.396180 0.000000 0.918173 35 35 35 1.000000
0.324586 0.064376 0.261062 0.000000 1.000000 0.000000 184 162 152 1.000000
0.538057 -0.150111 -0.539362 -1.000000 0.000000 0.000000 35 35 35 1.000000
-0.157346 0.064376 -0.088705 0.000000 -1.000000 0.000000 255 255 255 1.000000
0.530506 -0.240677 -0.400650 0.000000 -0.355912 0.934519 35 35 35 1.000000
-0.558529 -0.192197 -0.644983 0.000000 0.063843 -0.997960 35 35 35 1.000000
-0.592572 -0.047315 -0.553676 0.000000 1.000000 0.000000 35 35 35 1.000000
0.014269 0.014098 0.479432 0.000000 -1.000000 0.000000 197 179 165 1.000000
0.528281 -0.223121 -0.494377 -1.000000 0.000000 0.000000 35 35 35 1.000000
-0.097692 0.014098 -0.083468 0.000000 1.000000 0.000000 255 255 255 1.000000
0.558339 0.014098 0.276336 0.000000 -1.000000 0.000000 175 155 142 1.000000
-0.162361 0.014098 -0.042900 0.000000 -1.000000 0.000000 201 177 155 1.000000
-0.371210 0.064376 -0.436682 0.000000 -1.000000 0.000000 255 255 255 1.000000
-0.452120 0.064376 0.601762 0.000000 -1.000000 0.000000 255 255 255 1.000000
-0.307846 0.064376 0.572959 0.000000 1.000000 0.000000 222 194 180 1.000000
-0.172393 0.014098 -0.201910 0.000000 -1.000000 0.000000 205 180 162 1.000000
0.406449 0.014098 -0.250563 0.000000 -1.000000 0.000000 176 158 142 1.000000
0.489942 0.064376 -0.668741 0.000000 1.000000 0.000000 180 164 139 1.000000
0.444762 0.064376 0.089193 0.000000 1.000000 0.000000 176 158 144 1.000000
-0.528822 -0.091911 0.577788 -0.999275 -0.038062 0.000000 35 35 35 1.000000
-0.621118 -0.124201 -0.538662 -0.999816 0.019178 0.000000 35 35 35 1.000000
0.121756 0.064376 -0.567915 0.000000 -1.000000 0.000000 255 255 255 1.000000
0.113358 0.064376 0.071269 0.000000 1.000000 0.000000 184 156 141 1.000000
-0.265383 0.064376 0.417881 0.000000 -1.000000 0.000000 255 255 255 1.000000
-0.434166 0.014098 -0.537544 0.000000 1.000000 0.000000 255 255 255 1.000000
-0.527868 0.014098 -0.124328 0.000000 1.000000 0.000000 255 255 255 1.000000
0.415684 0.014098 0.673320 0.000000 1.000000 0.000000 255 255 255 1.000000
0.602649 0.064376 0.483993 0.000000 1.000000 0.000000 192 166 155 1.000000
0.534214 -0.291457 0.747403 0.765269 0.425512 -0.483015 35 35 35 1.000000
-0.464741 0.014098 0.612620 0.000000 1.000000 0.000000 255 255 255 1.000000
0.504664 0.014098 0.124674 0.000000 -1.000000 0.000000 183 171 160 1.000000
0.121142 0.014098 -0.346490 0.000000 1.000000 0.000000 255 255 255 1.000000
-0.121110 0.014098 -0.050403 0.000000 -1.000000 0.000000 202 179 157 1.000000
0.263098 0.064376 -0.190941 0.000000 1.000000 0.000000 164 144 134 1.000000
-0.110149 0.014098 0.505821 0.000000 -1.000000 0.000000 197 179 163 1.000000
-0.548373 -0.088915 0.704391 -1.000000 0.000000 0.000000 35 35 35 1.000000
-0.644028 0.014098 0.581275 0.000000 1.000000 0.000000 255 255 255 1.000000
-0.318742 0.064376 -0.656907 0.000000 1.000000 0.000000 175 156 136 1.000000
-0.188694 0.028202 0.674057 0.000000 0.000000 1.000000 181 165 157 1.000000
0.132187 0.064376 -0.421852 0.000000 -1.000000 0.000000 255 255 255 1.000000
0.061108 0.014098 0.504669 0.000000 1.000000 0.000000 255 255 255 1.000000
0.250944 0.014098 -0.175112 0.000000 1.000000 0.000000 255 255 255 1.000000
-0.549906 -0.314131 0.639411 0.000000 -0.999868 0.016249 35 35 35 1.000000
-0.564223 0.014098 0.000484 0.000000 -1.000000 0.000000 173 159 147 1.000000
-0.089875 0.014098 -0.618646 0.000000 -1.000000 0.000000 209 181 168 1.000000
0.131100 0.014098 -0.572190 0.000000 -1.000000 0.000000 196 169 152 1.000000
-0.027519 0.014098 0.618878 0.000000 -1.000000 0.000000 182 164 140 1.000000
-0.697862 0.063630 0.652904 -1.000000 0.000000 0.000000 50 43 43 1.000000
0.143965 0.064376 -0.662260 0.000000 1.000000 0.000000 186 166 141 1.000000
-0.601567 -0.267146 -0.587079 1.000000 0.000000 0.000000 35 35 35 1.000000
-0.688779 0.064376 -0.452675 0.000000 -1.000000 0.000000 255 255 255 1.000000
-0.117913 0.064376 0.537827 0.000000 1.000000 0.000000 190 164 153 1.000000
0.393378 0.064376 -0.620331 0.000000 -1.000000 0.000000 255 255 255 1.000000
-0.443985 0.064376 -0.190786 0.000000 -1.000000 0.000000 255 255 255 1.000000
0.567820 0.064376 -0.316376 0.000000 1.000000 0.000000 198 180 162 1.000000
0.613627 0.064376 -0.097525 0.000000 -1.000000 0.000000 255 255 255 1.000000
-0.668145 0.064376 0.113739 0.000000 1.000000 0.000000 152 129 115 1.000000
-0.579984 0.014098 0.546889 0.000000 -1.000000 0.000000 195 172 152 1.000000
-0.532953 0.064376 0.198014 0.000000 -1.000000 0.000000 255 255 255 1.000000
-0.074996 0.064376 0.474763 0.000000 1.000000 0.000000 181 165 153 1.000000
-0.607586 -0.309064 0.604634 0.000000 0.956971 0.290185 35 35 35 1.000000
0.384999 0.014098 -0.447879 0.000000 -1.000000 0.000000 201 175 164 1.000000
-0.394444 0.064376 0.280286 0.000000 1.000000 0.000000 163 145 134 1.000000
0.342448 0.064376 0.242770 0.000000 1.000000 0.000000 182 159 148 1.000000
-0.159167 0.064376 0.011959 0.000000 -1.000000 0.000000 255 255 255 1.000000
-0.537379 -0.238891 0.578223 0.000000 -0.914665 -0.404213 35 35 35 1.000000
0.655176 0.045595 -0.687842 0.000000 0.000000 1.000000 255 255 255 1.000000
-0.196613 0.064376 0.658056 0.000000 1.000000 0.000000 199 171 158 1.000000
-0.147950 0.014098 -0.665941 0.000000 -1.000000 0.000000 193 165 152 1.000000
-0.624160 0.064376 -0.090777 0.000000 1.000000 0.000000 160 151 141 1.000000
0.583676 -0.183947 -0.616864 1.000000 0.000000 0.000000 35 35 35 1.000000
0.133832 0.064376 -0.377462 0.000000 1.000000 0.000000 184 168 156 1.000000
-0.238094 0.014098 -0.418273 0.000000 -1.000000 0.000000 188 174 162 1.000000
0.089239 0.064376 -0.024896 0.000000 1.000000 0.000000 190 170 157 1.000000
0.173361 0.045724 -0.687842 0.000000 0.000000 1.000000 255 255 255 1.000000
0.108143 0.043802 -0.687842 0.000000 0.000000 1.000000 255 255 255 1.000000
0.321090 0.064376 -0.466271 0.000000 1.000000 0.000000 189 174 155 1.000000
0.603373 0.014098 -0.478890 0.000000 -1.000000 0.000000 197 171 160 1.000000
0.604762 -0.117441 -0.527413 0.000000 0.000000 -1.000000 35 35 35 1.000000
-0.095172 0.014098 0.543857 0.000000 -1.000000 0.000000 202 183 165 1.000000
-0.423655 0.064376 -0.453853 0.000000 -1.000000 0.000000 255 255 255 1.000000
0.148476 0.014098 0.441485 0.000000 1.000000 0.000000 255 255 255 1.000000
-0.026702 0.014098 0.474689 0.000000 1.000000 0.000000 255 255 255 1.000000
-0.308616 0.014098 -0.458098 0.000000 1.000000 0.000000 255 255 255 1.000000
-0.150246 0.014098 -0.100085 0.000000 1.000000 0.000000 255 255 255 1.000000
-0.281521 0.064376 0.518393 0.000000 -1.000000 0.000000 255 255 255 1.000000
0.289356 0.014098 0.122175 0.000000 1.000000 0.000000 255 255 255 1.000000
-0.623796 0.014098 -0.419972 0.000000 1.000000 0.000000 255 255 255 1.000000
0.007977 0.014098 0.518846 0.000000 1.000000 0.000000 255 255 255 1.000000
0.190109 0.064376 -0.591210 0.000000 -1.000000 0.000000 255 255 255 1.000000
0.364170 0.064376 -0.203065 0.000000 1.000000 0.000000 180 166 149 1.000000
0.547283 0.014098 0.238042 0.000000 -1.000000 0.000000 183 165 151 1.000000
-0.601567 -0.247982 -0.616176 1.000000 0.000000 0.000000 35 35 35 1.000000
-0.268594 0.064376 -0.668632 0.000000 1.000000 0.000000 163 144 124 1.000000
-0.515450 0.014098 0.072601 0.000000 -1.000000 0.000000 172 156 144 1.000000
-0.565684 0.064376 0.583835 0.000000 1.000000 0.000000 217 189 176 1.000000
-0.640303 0.064376 0.004968 0.000000 1.000000 0.000000 182 164 145 1.000000
-0.265369 0.014098 0.279363 0.000000 -1.000000 0.000000 193 175 161 1.000000
-0.174351 0.014098 0.179011 0.000000 -1.000000 0.000000 183 168 153 1.000000
-0.641816 0.064376 -0.136538 0.000000 -1.000000 0.000000 255 255 255 1.000000
-0.460903 0.014098 0.198452 0.000000 1.000000 0.000000 255 255 255 1.000000
0.655793 0.014098 0.163747 0.000000 -1.000000 0.000000 180 161 150 1.000000
-0.636740 0.064376 0.196841 0.000000 -1.000000 0.000000 255 255 255 1.000000
-0.227483 0.064376 -0.210220 0.000000 1.000000 0.000000 186 171 156 1.000000
-0.421483 0.064376 -0.246041 0.000000 -1.000000 0.000000 255 255 255 1.000000
0.606709 -0.202787 -0.483875 -0.997608 -0.009441 0.068477 146 145 146 1.000000
0.558469 0.014098 0.396212 0.000000 -1.000000 0.000000 208 194 173 1.000000
0.568425 -0.144023 0.550697 -1.000000 0.000000 0.000000 35 35 35 1.000000
0.522806 -0.179836 0.580645 1.000000 0.000000 0.000000 35 35 35 1.000000
-0.550891 0.014098 0.074945 0.000000 -1.000000 0.000000 157 137 127 1.000000
-0.487800 0.064376 -0.278589 0.000000 1.000000 0.000000 184 166 154 1.000000
-0.601567 -0.299818 -0.520974 1.000000 0.000000 0.000000 35 35 35 1.000000
-0.555947 -0.263263 -0.605487 1.000000 0.000000 0.000000 35 35 35 1.000000
-0.128578 0.064376 -0.680567 0.000000 1.000000 0.000000 176 156 135 1.000000
-0.562762 0.014098 0.567544 0.000000 1.000000 -0.000000 35 35 35 1.000000
0.240625 0.064376 0.493368 0.000000 1.000000 0.000000 186 158 150 1.000000
-0.256244 0.064376 -0.652396 0.000000 1.000000 0.000000 184 165 145 1.000000
0.484650 0.064376 0.073263 0.000000 -1.000000 0.000000 255 255 255 1.000000
-0.548497 -0.260994 0.541659 0.000000 0.533714 0.845665 35 35 35 1.000000
0.188195 0.014098 -0.516988 0.000000 -1.000000 0.000000 198 169 159 1.000000
-0.072338 0.064376 0.249131 0.000000 -1.000000 0.000000 255 255 255 1.000000
0.608123 0.064376 0.606813 0.000000 -1.000000 0.000000 255 255 255 1.000000
0.273265 0.064376 0.259815 0.000000 1.000000 0.000000 184 164 148 1.000000
-0.548373 -0.174138 0.516932 -1.000000 0.000000 0.000000 35 35 35 1.000000
-0.643561 -0.221924 0.633574 -0.997608 -0.009441 0.068477 35 35 35 1.000000
0.043781 0.064376 -0.635984 0.000000 1.000000 0.000000 174 156 130 1.000000
-0.613544 -0.078987 0.672842 -1.000000 0.000000 0.000000 35 35 35 1.000000
0.573583 -0.153496 -0.376809 -0.689985 -0.239336 -0.683110 35 35 35 1.000000
0.037386 0.064376 0.434261 0.000000 1.000000 0.000000 167 153 140 1.000000
0.095256 0.014098 0.298931 0.000000 1.000000 0.000000 255 255 255 1.000000
0.354933 0.014098 0.561213 0.000000 1.000000 0.000000 255 255 255 1.000000
-0.686708 0.014098 -0.574220 0.000000 -1.000000 0.000000 176 156 139 1.000000
0.513030 -0.308375 0.577693 1.000000 0.000000 0.000000 35 35 35 1.000000
-0.537698 0.064376 -0.358158 0.000000 1.000000 0.000000 191 173 158 1.000000
0.543585 -0.047315 -0.573447 0.000000 1.000000 0.000000 35 35 35 1.000000
-0.697862 0.037101 0.573562 1.000000 0.000000 0.000000 255 255 255 1.000000
0.528281 -0.308795 -0.467925 1.000000 0.000000 0.000000 35 35 35 1.000000
-0.659785 0.064376 -0.008170 0.000000 1.000000 0.000000 183 159 137 1.000000
-0.245318 0.064376 0.395764 0.000000 1.000000 0.000000 184 172 160 1.000000
-0.081151 0.064376 0.216161 0.000000 -1.000000 0.000000 255 255 255 1.000000
0.283775 0.014098 -0.611933 0.000000 1.000000 0.000000 255 255 255 1.000000
0.661539 0.064376 -0.631442 0.000000 -1.000000 0.000000 255 255 255 1.000000
-0.550897 0.064376 0.432595 0.000000 -1.000000 0.000000 255 255 255 1.000000
0.664037 0.031808 0.539099 1.000000 0.000000 0.000000 156 121 95 1.000000
-0.697862 0.028220 0.391050 1.000000 0.000000 0.000000 255 255 255 1.000000
-0.603768 -0.251288 0.591876 -1.000000 0.000000 0.000000 35 35 35 1.000000
-0.475743 0.014098 0.366000 0.000000 1.000000 0.000000 255 255 255 1.000000
-0.623320 -0.211015 0.586786 1.000000 0.000000 0.000000 35 35 35 1.000000
0.433718 0.064376 0.005826 0.000000 -1.000000 0.000000 255 255 255 1.000000
0.211853 0.064376 0.518205 0.000000 -1.000000 0.000000 255 255 255 1.000000
0.470745 0.014098 0.180103 0.000000 -1.000000 0.000000 189 171 157 1.000000
-0.255495 0.014098 -0.530703 0.000000 -1.000000 0.000000 212 188 176 1.000000
-0.027063 0.064376 -0.596285 0.000000 -1.000000 0.000000 255 255 255 1.000000
-0.241493 0.064376 0.546981 0.000000 1.000000 0.000000 187 158 150 1.000000
-0.402082 0.064376 0.592819 0.000000 1.000000 0.000000 205 177 164 1.000000
0.658727 0.064376 -0.569840 0.000000 1.000000 0.000000 191 168 148 1.000000
0.639136 0.064376 -0.107313 0.000000 -1.000000 0.000000 255 255 255 1.000000
0.514170 -0.172575 0.755710 0.000000 0.245281 0.969452 35 35 35 1.000000
-0.160406 0.064376 0.607763 0.000000 1.000000 0.000000 208 180 167 1.000000
-0.080379 0.014098 0.182490 0.000000 -1.000000 0.000000 180 163 148 1.000000
0.593690 -0.047315 -0.537499 0.000000 -1.000000 0.000000 35 35 35 1.000000
0.545601 0.014098 -0.378443 0.000000 1.000000 0.000000 255 255 255 1.000000
0.602598 -0.032102 -0.548999 0.958859 0.000000 0.283882 35 35 35 1.000000
0.319105 0.064376 -0.508943 0.000000 -1.000000 0.000000 255 255 255 1.000000
0.502553 0.064376 -0.010754 0.000000 1.000000 0.000000 194 178 166 1.000000
-0.011835 0.064376 0.252158 0.000000 -1.000000 0.000000 255 255 255 1.000000
0.587692 0.064376 0.132012 0.000000 -1.000000 0.000000 255 255 255 1.000000
0.530616 0.064376 0.013307 0.000000 -1.000000 0.000000 255 255 255 1.000000
0.269220 0.014098 0.640337 0.000000 -1.000000 0.000000 183 163 138 1.000000
-0.491637 0.014098 -0.360418 0.000000 1.000000 0.000000 255 255 255 1.000000
0.126861 0.014098 0.416327 0.000000 -1.000000 0.000000 191 176 159 1.000000
0.186657 0.064376 0.316182 0.000000 -1.000000 0.000000 255 255 255 1.000000
0.619528 0.014098 0.476602 0.000000 -1.000000 0.000000 187 166 147 1.000000
0.538057 -0.283126 -0.520996 -1.000000 0.000000 0.000000 35 35 35 1.000000
0.229606 0.064376 -0.365241 0.000000 -1.000000 0.000000 255 255 255 1.000000
-0.310011 0.064376 0.373566 0.000000 1.000000 0.000000 189 173 168 1.000000
-0.195924 0.064376 -0.100487 0.000000 -1.000000 0.000000 255 255 255 1.000000
0.612484 0.014098 -0.033220 0.000000 1.000000 0.000000 255 255 255 1.000000
0.575747 -0.194865 -0.641760 -0.818156 -0.025575 0.574428 35 35 35 1.000000
-0.060661 0.064376 -0.640192 0.000000 -1.000000 0.000000 255 255 255 1.000000
0.587976 -0.157214 0.577440 -1.000000 0.000000 0.000000 35 35 35 1.000000
0.546905 0.064376 -0.268267 0.000000 -1.000000 0.000000 255 255 255 1.000000
0.339357 0.064376 0.457994 0.000000 1.000000 0.000000 172 151 140 1.000000
-0.227556 0.064376 -0.670299 0.000000 1.000000 0.000000 174 155 137 1.000000
0.587976 -0.225977 0.605213 1.000000 0.000000 0.000000 35 35 35 1.000000
0.568425 -0.158225 0.648847 1.000000 0.000000 0.000000 35 35 35 1.000000
-0.601567 -0.269404 -0.430883 1.000000 0.000000 0.000000 35 35 35 1.000000
-0.265857 0.014098 -0.216812 0.000000 1.000000 0.000000 255 255 255 1.000000
-0.398896 0.014098 -0.334742 0.000000 -1.000000 0.000000 174 162 150 1.000000
0.411941 0.064376 0.252294 0.000000 -1.000000 0.000000 255 255 255 1.000000
-0.546172 -0.087420 -0.526731 -1.000000 0.000000 0.000000 35 35 35 1.000000
0.662565 0.014098 -0.453744 0.000000 1.000000 0.000000 255 255 255 1.000000
-0.687510 0.014098 0.415872 0.000000 1.000000 0.000000 255 255 255 1.000000
0.419144 0.064376 -0.680272 0.000000 1.000000 0.000000 184 168 143 1.000000
0.568425 -0.267528 0.733232 1.000000 0.000000 0.000000 35 35 35 1.000000
-0.259886 0.014098 0.108429 0.000000 1.000000 0.000000 255 255 255 1.000000
-0.544834 0.047269 -0.687842 0.000000 0.000000 1.000000 255 255 255 1.000000
0.538057 -0.247686 -0.565110 1.000000 0.000000 0.000000 35 35 35 1.000000
-0.251003 0.064376 -0.535902 0.000000 1.000000 0.000000 200 182 168 1.000000
0.560581 -0.335530 -0.461318 -0.096385 -0.944731 0.313356 35 35 35 1.000000
0.664037 0.035376 -0.443433 1.000000 0.000000 0.000000 165 136 122 1.000000
-0.465119 0.014098 0.311399 0.000000 1.000000 0.000000 255 255 255 1.000000
-0.445556 0.064376 -0.347226 0.000000 -1.000000 0.000000 255 255 255 1.000000
-0.608154 -0.308007 0.673046 0.000000 -0.949645 0.313326 35 35 35 1.000000
-0.419088 0.064376 -0.115348 0.000000 1.000000 0.000000 175 162 150 1.000000
-0.419589 0.014098 0.362662 0.000000 -1.000000 0.000000 193 175 159 1.000000
-0.358666 0.014098 -0.505814 0.000000 -1.000000 0.000000 200 181 170 1.000000
-0.432455 0.062430 0.674057 0.000000 0.000000 -1.000000 255 255 255 1.000000
-0.249900 0.064376 -0.293568 0.000000 -1.000000 0.000000 255 255 255 1.000000
0.452033 0.064376 -0.643078 0.000000 -1.000000 0.000000 255 255 255 1.000000
-0.603730 0.064376 -0.661274 0.000000 1.000000 0.000000 157 137 114 1.000000
-0.053102 0.014098 0.028595 0.000000 1.000000 0.000000 255 255 255 1.000000
-0.547103 0.064376 0.560369 0.000000 -1.000000 0.000000 255 255 255 1.000000
0.460598 0.064376 0.364469 0.000000 1.000000 0.000000 188 159 143 1.000000
-0.555947 -0.214744 -0.436085 1.000000 0.000000 0.000000 35 35 35 1.000000
-0.601567 -0.141670 -0.441609 -1.000000 0.000000 0.000000 35 35 35 1.000000
0.095499 0.064376 0.266954 0.000000 -1.000000 0.000000 255 255 255 1.000000
0.522806 -0.309783 0.661670 -1.000000 0.000000 0.000000 35 35 35 1.000000
-0.053523 0.014098 -0.093795 0.000000 1.000000 0.000000 255 255 255 1.000000
-0.517112 0.014098 0.581376 0.000000 1.000000 0.000000 255 255 255 1.000000
0.094003 0.014098 -0.501423 0.000000 -1.000000 0.000000 188 163 152 1.000000
-0.555695 -0.118549 -0.436973 0.000000 -0.720872 -0.693068 35 35 35 1.000000
-0.398570 0.014098 -0.043077 0.000000 -1.000000 0.000000 178 150 133 1.000000
-0.195778 0.014098 0.065597 0.000000 -1.000000 0.000000 184 168 156 1.000000
-0.351362 0.064376 0.583482 0.000000 -1.000000 0.000000 255 255 255 1.000000
0.487472 0.014098 -0.042012 0.000000 -1.000000 0.000000 188 170 156 1.000000
-0.601567 -0.224116 -0.456480 1.000000 0.000000 0.000000 35 35 35 1.000000
0.578201 -0.108574 0.553781 1.000000 0.000000 0.000000 35 35 35 1.000000
-0.348825 0.064376 -0.597383 0.000000 -1.000000 0.000000 255 255 255 1.000000
-0.601567 -0.254718 -0.548180 1.000000 0.000000 0.000000 35 35 35 1.000000
-0.016712 0.064376 -0.322928 0.000000 1.000000 0.000000 201 183 167 1.000000
-0.315351 0.064376 0.198909 0.000000 -1.000000 0.000000 255 255 255 1.000000
0.577686 -0.122240 -0.400567 -0.920252 -0.228796 -0.317472 35 35 35 1.000000
0.528281 -0.194182 -0.562287 1.000000 0.000000 0.000000 35 35 35 1.000000
0.501619 0.014098 0.357260 0.000000 1.000000 0.000000 255 255 255 1.000000
-0.595802 -0.191659 -0.644912 0.000000 -0.068018 0.997684 35 35 35 1.000000
-0.190551 0.064376 0.612168 0.000000 -1.000000 0.000000 255 255 255 1.000000
0.437029 0.014098 0.113500 0.000000 -1.000000 0.000000 186 170 158 1.000000
0.576580 -0.095731 -0.422972 -0.869406 -0.382505 -0.312766 35 35 35 1.000000
0.502267 0.014098 -0.399211 0.000000 -1.000000 0.000000 182 159 146 1.000000
-0.452447 0.064376 -0.138037 0.000000 1.000000 0.000000 167 159 145 1.000000
0.303604 0.014098 0.615145 0.000000 1.000000 0.000000 255 255 255 1.000000
0.555638 0.064376 -0.224149 0.000000 -1.000000 0.000000 255 255 255 1.000000
0.294777 0.064376 -0.039436 0.000000 -1.000000 0.000000 255 255 255 1.000000
-0.210362 0.064376 0.229265 0.000000 1.000000 0.000000 180 154 146 1.000000
-0.528885 -0.116263 0.552843 0.000000 0.030771 0.999526 35 35 35 1.000000
-0.696785 0.014098 -0.359641 0.000000 -1.000000 0.000000 126 112 95 1.000000
0.597007 0.014098 0.123470 0.000000 1.000000 0.000000 255 255 255 1.000000
0.552815 -0.069027 0.594405 -0.357728 -0.871452 0.335563 35 35 35 1.000000
0.296531 0.064376 -0.630928 0.000000 -1.000000 0.000000 255 255 255 1.000000
-0.011921 0.064376 0.449257 0.000000 -1.000000 0.000000 255 255 255 1.000000
-0.697862 0.054335 -0.385654 -1.000000 0.000000 0.000000 121 90 73 1.000000
-0.375252 0.064376 -0.277249 0.000000 -1.000000 0.000000 255 255 255 1.000000
-0.653423 0.014098 -0.371178 0.000000 -1.000000 0.000000 172 158 143 1.000000
-0.621650 0.014098 -0.085016 0.000000 -1.000000 0.000000 179 172 169 1.000000
-0.031842 0.014098 0.654070 0.000000 -1.000000 0.000000 185 162 140 1.000000
0.201464 0.014098 0.473285 0.000000 -1.000000 0.000000 190 176 153 1.000000
-0.601567 -0.238131 -0.526686 -1.000000 0.000000 0.000000 35 35 35 1.000000
0.538057 -0.121249 -0.584163 1.000000 0.000000 0.000000 35 35 35 1.000000
-0.296437 0.064376 -0.434789 0.000000 -1.000000 0.000000 255 255 255 1.000000
-0.497976 0.014098 -0.588114 0.000000 1.000000 0.000000 255 255 255 1.000000
0.544241 -0.273772 -0.399596 0.000000 -0.566493 0.824066 35 35 35 1.000000
0.014829 0.014098 -0.664731 0.000000 -1.000000 0.000000 202 174 161 1.000000
0.280639 0.064376 0.159931 0.000000 1.000000 0.000000 176 155 138 1.000000
-0.082525 0.064376 0.036630 0.000000 1.000000 0.000000 191 167 145 1.000000
0.656681 0.064376 0.047540 0.000000 -1.000000 0.000000 255 255 255 1.000000
-0.068468 0.014098 -0.580503 0.000000 1.000000 0.000000 255 255 255 1.000000
0.554084 0.014098 -0.562302 0.000000 1.000000 -0.000000 35 35 35 1.000000
0.003086 0.014098 -0.134582 0.000000 -1.000000 0.000000 182 162 141 1.000000
0.313622 0.014098 -0.329080 0.000000 1.000000 0.000000 255 255 255 1.000000
0.587976 -0.166415 0.603110 -1.000000 0.000000 0.000000 35 35 35 1.000000
-0.594785 -0.325334 0.682474 -0.905925 -0.398310 0.143695 35 35 35 1.000000
0.442306 0.064376 -0.385203 0.000000 -1.000000 0.000000 255 255 255 1.000000
-0.614789 -0.037540 0.583761 0.016664 -0.999861 0.000000 35 35 35 1.000000
-0.049524 0.064376 -0.473535 0.000000 -1.000000 0.000000 255 255 255 1.000000
0.597866 0.014098 -0.090931 0.000000 1.000000 0.000000 255 255 255 1.000000
0.518506 -0.172633 -0.537947 1.000000 0.000000 0.000000 35 35 35 1.000000
-0.579129 -0.097390 0.736641 -0.031614 -0.720637 -0.692591 35 35 35 1.000000
0.261647 0.064376 0.028087 0.000000 1.000000 0.000000 188 163 143 1.000000
0.273245 0.014098 0.340846 0.000000 -1.000000 0.000000 181 167 152 1.000000
0.148661 0.064376 0.266824 0.000000 -1.000000 0.000000 255 255 255 1.000000
0.586795 0.014098 0.368741 0.000000 1.000000 0.000000 255 255 255 1.000000
-0.387262 0.014098 0.299776 0.000000 1.000000 0.000000 255 255 255 1.000000
-0.565471 -0.334434 -0.483879 -0.723026 0.671681 -0.161486 35 35 35 1.000000
0.509677 0.064376 -0.064706 0.000000 1.000000 0.000000 178 162 149 1.000000
-0.205220 0.014098 0.588107 0.000000 1.000000 0.000000 255 255 255 1.000000
-0.588928 0.014098 0.235984 0.000000 1.000000 0.000000 255 255 255 1.000000
-0.207666 0.014098 -0.002561 0.000000 1.000000 0.000000 255 255 255 1.000000
-0.166103 0.014098 -0.126597 0.000000 -1.000000 0.000000 207 179 162 1.000000
0.583073 -0.236735 0.657178 0.000000 -0.951675 0.307107 35 35 35 1.000000
0.582986 0.014098 0.504070 0.000000 -1.000000 0.000000 188 170 150 1.000000
0.038708 0.064376 -0.562116 0.000000 -1.000000 0.000000 255 255 255 1.000000
0.070232 0.064376 -0.250734 0.000000 -1.000000 0.000000 255 255 255 1.000000
0.253965 0.014098 0.493831 0.000000 1.000000 0.000000 255 255 255 1.000000
0.047923 0.064376 -0.405395 0.000000 -1.000000 0.000000 255 255 255 1.000000
-0.220550 0.014098 0.128918 0.000000 -1.000000 0.000000 176 160 148 1.000000
-0.109796 0.064376 0.463795 0.000000 1.000000 0.000000 192 173 162 1.000000
-0.295613 0.014098 0.122793 0.000000 -1.000000 0.000000 172 154 142 1.000000
0.345775 0.014098 0.521101 0.000000 1.000000 0.000000 255 255 255 1.000000
0.503254 -0.216516 0.641410 -1.000000 0.000000 0.000000 35 35 35 1.000000
0.624246 0.064376 -0.136942 0.000000 -1.000000 0.000000 255 255 255 1.000000
0.291083 0.014098 0.580893 0.000000 -1.000000 0.000000 170 147 122 1.000000
0.063367 0.014098 -0.537060 0.000000 -1.000000 0.000000 185 158 149 1.000000
0.664037 0.048299 0.238863 1.000000 0.000000 0.000000 149 120 99 1.000000
0.164357 0.014098 -0.395940 0.000000 -1.000000 0.000000 193 167 156 1.000000
-0.448821 0.014098 0.397327 0.000000 1.000000 0.000000 255 255 255 1.000000
0.026822 0.064376 -0.065680 0.000000 -1.000000 0.000000 255 255 255 1.000000
0.110769 0.035116 0.674057 0.000000 0.000000 -1.000000 255 255 255 1.000000
0.578412 -0.203293 0.607531 0.000000 -0.074303 -0.997236 35 35 35 1.000000
0.384538 0.014098 0.655510 0.000000 1.000000 0.000000 255 255 255 1.000000
0.504082 -0.152556 0.624293 0.000000 0.000000 -1.000000 35 35 35 1.000000
0.587976 -0.096661 0.622348 1.000000 0.000000 0.000000 35 35 35 1.000000
-0.254228 0.014098 -0.491657 0.000000 -1.000000 0.000000 199 180 169 1.000000
0.326931 0.014098 0.005770 0.000000 1.000000 0.000000 255 255 255 1.000000
0.467225 0.064376 0.624275 0.000000 -1.000000 0.000000 255 255 255 1.000000
-0.483985 0.064376 -0.464922 0.000000 1.000000 0.000000 198 180 166 1.000000
-0.624820 0.064376 -0.576726 0.000000 -1.000000 0.000000 255 255 255 1.000000
0.350136 0.014098 -0.544357 0.000000 -1.000000 0.000000 168 143 134 1.000000
0.302707 0.044548 -0.687842 0.000000 0.000000 -1.000000 146 130 104 1.000000
0.621078 0.064376 0.408993 0.000000 1.000000 0.000000 175 157 149 1.000000
0.568107 0.014098 -0.119476 0.000000 1.000000 0.000000 255 255 255 1.000000
-0.697862 0.030855 0.661937 -1.000000 0.000000 0.000000 116 99 90 1.000000
0.411478 0.014098 -0.347779 0.000000 -1.000000 0.000000 195 165 150 1.000000
0.387913 0.014098 0.145267 0.000000 1.000000 0.000000 255 255 255 1.000000
0.106540 0.064376 -0.277655 0.000000 -1.000000 0.000000 255 255 255 1.000000
-0.558149 -0.179180 0.561469 1.000000 0.000000 0.000000 35 35 35 1.000000
-0.081934 0.055615 0.674057 0.000000 0.000000 -1.000000 255 255 255 1.000000
-0.638870 0.014098 0.414439 0.000000 1.000000 0.000000 255 255 255 1.000000
0.329034 0.064376 0.214900 0.000000 1.000000 0.000000 176 156 143 1.000000
0.063272 0.014098 -0.096883 0.000000 -1.000000 0.000000 185 157 139 1.000000
0.582610 0.014098 -0.058046 0.000000 -1.000000 0.000000 176 158 143 1.000000
-0.397841 0.014098 -0.596954 0.000000 1.000000 0.000000 255 255 255 1.000000
-0.504090 0.014098 0.203069 0.000000 1.000000 0.000000 255 255 255 1.000000
0.664037 0.032966 -0.659657 1.000000 0.000000 0.000000 127 100 84 1.000000
0.220584 0.014098 -0.494010 0.000000 -1.000000 0.000000 193 169 158 1.000000
-0.055851 0.064376 -0.527141 0.000000 -1.000000 0.000000 255 255 255 1.000000
-0.618948 -0.113478 0.616384 0.000000 0.000000 1.000000 35 35 35 1.000000
-0.016478 0.064376 -0.019745 0.000000 1.000000 0.000000 194 169 153 1.000000
-0.071404 0.014098 0.490850 0.000000 -1.000000 0.000000 200 182 168 1.000000
-0.558149 -0.191202 0.694317 1.000000 0.000000 0.000000 35 35 35 1.000000
-0.604818 0.054798 0.674057 0.000000 0.000000 1.000000 178 162 149 1.000000
-0.440211 0.014098 -0.391354 0.000000 1.000000 0.000000 255 255 255 1.000000
-0.590211 0.064376 0.428936 0.000000 -1.000000 0.000000 255 255 255 1.000000
-0.516568 0.064376 -0.239497 0.000000 1.000000 0.000000 166 147 137 1.000000
-0.697862 0.018846 -0.526791 1.000000 0.000000 0.000000 255 255 255 1.000000
0.371854 0.014098 0.616799 0.000000 1.000000 0.000000 255 255 255 1.000000
0.168702 0.014098 -0.656663 0.000000 1.000000 0.000000 255 255 255 1.000000
0.183546 0.064376 -0.433100 0.000000 -1.000000 0.000000 255 255 255 1.000000
0.581815 -0.080717 -0.457648 0.000000 0.926638 0.375955 35 35 35 1.000000
-0.601567 -0.192461 -0.598997 1.000000 0.000000 0.000000 35 35 35 1.000000
0.107357 0.014098 -0.527737 0.000000 1.000000 0.000000 255 255 255 1.000000
-0.603095 -0.037540 0.616251 0.000000 1.000000 0.000000 255 255 255 1.000000
0.593452 -0.208453 -0.631662 -1.000000 0.000000 0.000000 35 35 35 1.000000
-0.641320 0.064376 0.264485 0.000000 -1.000000 0.000000 255 255 255 1.000000
-0.640919 -0.201225 -0.510442 0.997608 0.009441 -0.068477 136 138 138 1.000000
-0.650276 0.014098 -0.662724 0.000000 1.000000 0.000000 255 255 255 1.000000
-0.414247 0.064376 0.436340 0.000000 1.000000 0.000000 191 170 161 1.000000
0.305853 0.064376 0.586928 0.000000 1.000000 0.000000 197 163 145 1.000000
-0.625269 0.064376 0.392263 0.000000 -1.000000 0.000000 255 255 255 1.000000
0.347612 0.014098 0.097892 0.000000 1.000000 0.000000 255 255 255 1.000000
-0.559956 -0.023278 0.551658 -0.334266 0.000000 0.942479 35 35 35 1.000000
-0.031287 0.064376 0.103265 0.000000 1.000000 0.000000 187 162 144 1.000000
-0.450689 0.014098 0.507225 0.000000 1.000000 0.000000 255 255 255 1.000000
0.587932 0.014098 0.484866 0.000000 1.000000 0.000000 255 255 255 1.000000
0.096865 0.014098 0.086564 0.000000 1.000000 0.000000 255 255 255 1.000000
0.499182 0.014098 0.397150 0.000000 -1.000000 0.000000 196 181 163 1.000000
0.560081 -0.064292 0.639747 0.790317 0.612145 -0.026052 35 35 35 1.000000
0.568425 -0.251479 0.548067 -1.000000 0.000000 0.000000 35 35 35 1.000000
-0.489266 0.014098 -0.495522 0.000000 -1.000000 0.000000 196 173 163 1.000000
-0.272043 0.014098 0.612860 0.000000 1.000000 0.000000 255 255 255 1.000000
0.533739 0.014098 -0.153233 0.000000 1.000000 0.000000 255 255 255 1.000000
0.376113 0.014098 -0.413867 0.000000 -1.000000 0.000000 198 172 159 1.000000
-0.646299 0.064376 -0.560563 0.000000 -1.000000 0.000000 255 255 255 1.000000
-0.270883 0.064376 0.041931 0.000000 1.000000 0.000000 192 169 156 1.000000
-0.538598 -0.197733 0.660311 1.000000 0.000000 0.000000 35 35 35 1.000000
-0.599868 0.064376 -0.321252 0.000000 -1.000000 0.000000 255 255 255 1.000000
-0.591078 -0.336846 0.655344 -0.691334 -0.715525 0.100404 35 35 35 1.000000
-0.077407 0.064376 0.422410 0.000000 -1.000000 0.000000 255 255 255 1.000000
-0.290466 0.014098 0.216374 0.000000 1.000000 0.000000 255 255 255 1.000000
-0.199565 0.014098 0.128716 0.000000 1.000000 0.000000 255 255 255 1.000000
-0.272850 0.041756 0.674057 0.000000 0.000000 1.000000 176 159 150 1.000000
-0.519964 0.014098 0.031413 0.000000 1.000000 0.000000 255 255 255 1.000000
0.229301 0.014098 -0.024609 0.000000 -1.000000 0.000000 197 170 149 1.000000
0.266451 0.064376 -0.221749 0.000000 -1.000000 0.000000 255 255 255 1.000000
-0.075339 0.014098 -0.201077 0.000000 1.000000 0.000000 255 255 255 1.000000
0.049113 0.064376 -0.497662 0.000000 -1.000000 0.000000 255 255 255 1.000000
0.583676 -0.233897 -0.485047 1.000000 0.000000 0.000000 35 35 35 1.000000
0.064941 0.014098 0.320362 0.000000 -1.000000 0.000000 201 183 168 1.000000
0.305406 0.014098 0.204252 0.000000 -1.000000 0.000000 183 154 146 1.000000
-0.598281 -0.079260 -0.560796 0.000000 -0.937308 0.348502 35 35 35 1.000000
0.247201 0.064376 0.166517 0.000000 -1.000000 0.000000 255 255 255 1.000000
0.597752 -0.171048 0.671082 1.000000 0.000000 0.000000 35 35 35 1.000000
-0.040122 0.064376 0.224535 0.000000 1.000000 0.000000 200 181 163 1.000000
0.568425 -0.161503 0.612287 1.000000 0.000000 0.000000 35 35 35 1.000000
0.444345 0.064376 -0.316924 0.000000 1.000000 0.000000 196 178 164 1.000000
0.142777 0.064376 -0.208444 0.000000 1.000000 0.000000 181 165 153 1.000000
-0.697862 0.017538 0.448937 -1.000000 0.000000 0.000000 161 125 112 1.000000
-0.206642 0.064376 -0.065067 0.000000 -1.000000 0.000000 255 255 255 1.000000
-0.434065 0.064376 -0.080026 0.000000 -1.000000 0.000000 255 255 255 1.000000
0.515160 -0.117663 0.546124 0.000000 -0.640238 0.768177 35 35 35 1.000000
-0.697862 0.014542 -0.025406 -1.000000 0.000000 0.000000 151 142 132 1.000000
0.162621 0.064376 -0.634272 0.000000 1.000000 0.000000 181 158 136 1.000000
0.230064 0.014098 -0.064210 0.000000 1.000000 0.000000 255 255 255 1.000000
-0.677259 0.014098 0.669672 0.000000 1.000000 0.000000 255 255 255 1.000000
-0.414978 0.064376 0.245208 0.000000 -1.000000 0.000000 255 255 255 1.000000
-0.670048 0.014098 0.335640 0.000000 1.000000 0.000000 255 255 255 1.000000
-0.301668 0.064376 -0.544585 0.000000 -1.000000 0.000000 255 255 255 1.000000
-0.270220 0.064376 -0.566336 0.000000 1.000000 0.000000 189 171 157 1.000000
-0.265168 0.014098 -0.156632 0.000000 -1.000000 0.000000 192 171 152 1.000000
-0.555947 -0.277931 -0.592317 1.000000 0.000000 0.000000 35 35 35 1.000000
0.487381 -0.201144 0.679276 -0.841136 -0.092293 0.532891 35 35 35 1.000000
-0.637423 -0.173466 0.657246 0.006330 -0.998944 -0.045513 172 172 172 1.000000
-0.052088 0.064376 -0.299230 0.000000 -1.000000 0.000000 255 255 255 1.000000
-0.572244 0.014098 -0.395150 0.000000 1.000000 0.000000 255 255 255 1.000000
0.473278 0.064376 -0.237917 0.000000 -1.000000 0.000000 255 255 255 1.000000
-0.287983 0.014098 -0.507982 0.000000 1.000000 0.000000 255 255 255 1.000000
-0.506585 0.014098 -0.066781 0.000000 -1.000000 0.000000 177 151 138 1.000000
0.284115 0.014098 0.606497 0.000000 -1.000000 0.000000 187 163 137 1.000000
-0.555947 -0.182061 -0.442338 -1.000000 0.000000 0.000000 35 35 35 1.000000
0.568425 -0.139456 0.571423 -1.000000 0.000000 0.000000 35 35 35 1.000000
0.327034 0.035634 0.674057 0.000000 0.000000 -1.000000 255 255 255 1.000000
-0.115379 0.014098 0.226383 0.000000 -1.000000 0.000000 188 173 158 1.000000
0.513030 -0.226821 0.533879 1.000000 0.000000 0.000000 35 35 35 1.000000
0.433023 0.014098 0.613914 0.000000 -1.000000 0.000000 182 164 138 1.000000
0.583676 -0.194688 -0.584139 -1.000000 0.000000 0.000000 35 35 35 1.000000
0.297844 0.064376 0.561390 0.000000 1.000000 0.000000 179 150 132 1.000000
0.348682 0.064376 -0.007590 0.000000 -1.000000 0.000000 255 255 255 1.000000
-0.068291 0.014098 -0.542081 0.000000 1.000000 0.000000 255 255 255 1.000000
0.648775 0.064376 -0.494626 0.000000 1.000000 0.000000 188 165 144 1.000000
-0.266948 0.056465 -0.687842 0.000000 0.000000 1.000000 255 255 255 1.000000
-0.094854 0.014098 0.086793 0.000000 -1.000000 0.000000 175 165 150 1.000000
-0.540124 0.014098 0.038045 0.000000 -1.000000 0.000000 163 151 136 1.000000
-0.485880 0.056988 -0.687842 0.000000 0.000000 -1.000000 155 145 140 1.000000
0.242842 0.014098 -0.499471 0.000000 1.000000 0.000000 255 255 255 1.000000
-0.455549 0.064376 -0.478692 0.000000 1.000000 0.000000 198 180 166 1.000000
0.112171 0.064376 0.510397 0.000000 -1.000000 0.000000 255 255 255 1.000000
0.025805 0.014098 -0.015369 0.000000 -1.000000 0.000000 168 136 117 1.000000
-0.211636 0.064376 -0.513813 0.000000 -1.000000 0.000000 255 255 255 1.000000
0.503254 -0.060228 0.609957 -0.998467 0.055354 0.000000 35 35 35 1.000000
-0.546372 0.064376 -0.086207 0.000000 -1.000000 0.000000 255 255 255 1.000000
-0.222540 0.064376 -0.391455 0.000000 -1.000000 0.000000 255 255 255 1.000000
0.191569 0.064376 -0.517299 0.000000 -1.000000 0.000000 255 255 255 1.000000
-0.601567 -0.184184 -0.475591 1.000000 0.000000 0.000000 35 35 35 1.000000
-0.229584 0.064376 -0.460046 0.000000 1.000000 0.000000 184 166 150 1.000000
-0.555947 -0.269259 -0.431770 1.000000 0.000000 0.000000 35 35 35 1.000000
-0.409471 0.014098 0.142536 0.000000 1.000000 0.000000 255 255 255 1.000000
0.599175 0.064376 -0.522313 0.000000 1.000000 0.000000 194 174 153 1.000000
-0.300617 0.064376 -0.126085 0.000000 1.000000 0.000000 181 162 151 1.000000
-0.000026 0.064376 -0.254671 0.000000 -1.000000 0.000000 255 255 255 1.000000
0.630297 0.014098 -0.428156 0.000000 -1.000000 0.000000 160 144 136 1.000000
0.513204 0.064376 -0.505444 0.000000 -1.000000 0.000000 255 255 255 1.000000
0.577658 0.014098 0.544049 0.000000 -1.000000 0.000000 188 170 149 1.000000
-0.675733 0.014098 -0.497915 0.000000 1.000000 0.000000 255 255 255 1.000000
0.261251 0.064376 -0.103960 0.000000 -1.000000 0.000000 255 255 255 1.000000
0.103187 0.064376 0.610381 0.000000 -1.000000 0.000000 255 255 255 1.000000
0.358232 0.064376 0.290823 0.000000 1.000000 0.000000 177 151 140 1.000000
0.210428 0.064376 0.343389 0.000000 1.000000 0.000000 193 168 156 1.000000
0.017752 0.064376 0.303261 0.000000 -1.000000 0.000000 255 255 255 1.000000
0.067927 0.064376 0.105696 0.000000 -1.000000 0.000000 255 255 255 1.000000
-0.280255 0.064376 -0.312514 0.000000 -1.000000 0.000000 255 255 255 1.000000
0.664037 0.052165 -0.668762 -1.000000 0.000000 0.000000 255 255 255 1.000000
-0.592598 -0.319985 -0.573443 -0.906378 -0.379940 -0.184727 35 35 35 1.000000
-0.606011 -0.266011 -0.628322 0.000000 0.503110 0.864223 35 35 35 1.000000
-0.555947 -0.091528 -0.497220 1.000000 0.000000 0.000000 35 35 35 1.000000
-0.355733 0.014098 -0.433138 0.000000 -1.000000 0.000000 177 167 152 1.000000
0.349476 0.064376 -0.678790 0.000000 1.000000 0.000000 179 159 132 1.000000
0.322922 0.014098 -0.483722 0.000000 -1.000000 0.000000 174 152 142 1.000000
0.528281 -0.267333 -0.614643 1.000000 0.000000 0.000000 35 35 35 1.000000
-0.588721 0.064376 -0.287022 0.000000 1.000000 0.000000 169 152 145 1.000000
-0.603768 -0.171183 0.604312 -1.000000 0.000000 0.000000 35 35 35 1.000000
-0.697862 0.044553 -0.136443 -1.000000 0.000000 0.000000 133 89 80 1.000000
0.040638 0.064376 0.486926 0.000000 1.000000 0.000000 191 171 160 1.000000
0.531194 0.064376 -0.658649 0.000000 -1.000000 0.000000 255 255 255 1.000000
-0.296834 0.014098 -0.628379 0.000000 -1.000000 0.000000 214 186 173 1.000000
-0.534934 0.014098 -0.406388 0.000000 1.000000 0.000000 255 255 255 1.000000
0.522806 -0.097910 0.652207 1.000000 0.000000 0.000000 35 35 35 1.000000
0.519314 -0.033266 0.580487 -0.941528 0.000000 -0.336933 35 35 35 1.000000
-0.071910 0.064376 0.129171 0.000000 1.000000 0.000000 203 183 163 1.000000
-0.553095 -0.308845 0.671023 0.000000 -0.955502 0.294985 35 35 35 1.000000
0.111527 0.014098 -0.668211 0.000000 -1.000000 0.000000 197 167 155 1.000000
